<?xml version="1.0"?>
<opencv_storage>
<data type_id="opencv-matrix">
  <rows>106</rows>
  <cols>225</cols>
  <dt>w</dt>
  <data>
    708 709 709 709 708 710 710 710 709 710 712 712 711 711 710 710 711 711 710 709 708 709 709 710 710 710 710 711 710 711 711 711 711 712 712 712 712 713 713 713 713 712 712 711 712 713 714 714 712 713 712 713 712 712 712 713 713 714 714 713 712 712 711 711 710 712 712 714 713 713 714 714 715 713 713 713 714 714 713 714 713 713 712 712 713 713 713 714 713 711 711 712 713 714 713 713 713 715 715 714 713 715 715 715 715 715 715 714 713 712 712 712 712 713 715 715 714 715 715 716 716 715 713 712 711 713 714 715 714 713 713 713 714 713 713 714 714 714 712 712 712 713 714 714 714 715 715 715 714 714 713 714 714 714 714 714 713 713 712 713 711 712 712 713 713 711 712 712 713 714 715 716 715 714 713 714 714 713 712 712 713 714 715 714 714 713 713 713 713 712 712 712 713 713 713 714 715 714 714 715 713 712 711 713 712 713 713 714 714 714 713 713 713 714 714 714 714 714 714 713 713 712 712 711 712
    707 708 708 709 709 709 709 709 709 710 711 710 710 709 709 711 711 712 710 709 708 709 710 711 711 712 711 711 711 711 712 712 712 712 713 712 712 712 713 713 713 711 712 711 712 712 712 712 712 712 712 712 712 712 712 713 713 712 713 712 713 712 712 712 711 712 713 713 713 712 713 712 713 712 712 712 713 713 712 712 712 712 711 712 714 714 714 712 712 712 712 712 713 713 714 714 716 716 716 715 713 713 713 714 714 713 714 714 714 713 714 713 713 713 714 714 714 715 714 714 714 714 713 713 712 713 713 714 714 713 713 712 713 713 713 714 714 715 714 714 713 713 713 714 715 715 714 714 714 714 714 715 716 715 715 715 715 714 713 713 713 712 712 713 714 713 713 714 715 715 715 716 716 714 713 713 714 713 712 711 713 713 714 713 714 713 714 714 714 714 714 714 714 714 713 714 715 714 713 713 713 712 712 713 713 713 713 713 714 714 714 714 714 714 714 714 714 714 713 712 712 711 711 711 712
    707 709 708 710 709 710 710 710 710 710 710 710 709 710 710 713 712 712 710 709 709 709 710 711 711 712 711 711 711 712 712 712 712 712 713 712 712 711 712 713 712 712 712 712 712 712 714 713 713 712 713 713 712 711 710 711 712 713 713 711 712 711 712 713 712 712 712 714 714 713 713 714 715 714 713 713 714 714 713 712 712 713 713 713 714 714 713 712 713 712 712 711 712 714 714 715 715 717 716 716 713 713 713 714 714 714 714 714 715 716 714 714 714 714 714 714 713 714 714 714 713 713 714 714 714 715 715 715 714 713 713 712 713 714 715 715 715 716 714 714 713 713 712 713 715 715 713 713 713 714 714 715 715 714 714 714 714 714 712 712 711 713 713 714 714 713 713 713 715 715 715 716 715 715 715 716 716 714 713 713 715 715 715 714 715 714 713 713 713 713 713 714 714 715 713 715 714 715 714 713 712 712 712 715 715 715 713 714 713 714 714 715 714 714 714 714 712 712 711 712 711 712 712 712 712
    708 709 708 708 708 708 709 709 710 708 708 709 709 710 710 712 712 712 709 708 709 710 712 712 711 711 711 712 712 713 713 713 712 712 712 712 712 711 711 712 712 712 711 711 711 711 712 712 714 712 713 713 713 711 710 710 712 712 712 711 712 711 712 712 712 712 712 713 713 713 713 713 713 713 713 713 714 714 714 713 713 714 714 714 714 713 712 712 713 712 712 711 712 712 713 713 713 714 714 715 712 712 712 714 714 714 713 714 714 714 712 712 715 715 715 714 714 715 715 714 713 713 715 714 714 714 714 714 713 713 713 713 714 714 714 713 715 716 715 714 714 713 712 713 713 714 712 712 712 713 714 714 715 714 714 714 715 715 714 713 713 713 714 715 715 714 714 714 716 715 715 714 716 715 715 714 715 713 713 713 714 714 714 714 715 714 714 714 714 713 713 714 714 715 714 713 713 713 713 712 712 711 712 713 713 714 712 712 713 714 713 713 714 713 713 713 711 710 710 711 713 712 711 711 712
    709 709 708 708 708 709 710 709 710 709 708 709 710 711 710 710 711 711 709 709 709 710 711 710 710 709 710 710 710 711 711 711 711 712 712 712 711 712 711 713 713 713 712 711 712 712 713 713 715 713 714 714 714 711 710 710 712 713 714 712 712 712 712 712 711 711 711 712 712 714 713 714 713 713 712 712 714 714 714 714 714 714 713 713 713 713 712 712 714 713 712 711 711 712 711 712 711 713 712 714 713 714 713 714 714 715 714 715 715 714 711 712 714 715 715 714 714 715 715 715 714 714 714 714 713 713 713 714 713 713 713 715 715 715 713 713 714 715 715 714 714 714 713 713 713 714 712 712 713 714 714 714 715 715 714 714 713 715 715 714 714 714 715 715 713 712 711 713 713 714 714 714 714 713 713 713 714 713 713 713 713 713 713 715 714 713 713 713 713 713 712 713 714 714 713 713 713 713 713 713 713 712 712 713 713 714 713 714 712 713 713 714 713 712 712 713 712 711 711 712 714 713 712 712 712
    710 709 709 708 709 709 710 709 710 709 708 708 710 710 709 709 710 710 708 708 710 710 711 711 711 710 710 711 711 711 711 712 712 713 712 712 712 712 712 713 713 713 712 712 712 712 712 713 715 713 714 714 714 712 710 709 710 711 712 712 712 712 712 712 712 712 712 711 712 713 713 713 713 711 712 711 713 713 714 714 713 714 712 714 714 713 713 712 713 714 714 713 712 712 712 712 712 712 712 712 713 713 713 713 714 714 713 713 714 713 712 712 713 714 714 714 714 715 715 713 713 713 714 713 713 713 713 712 713 713 714 716 716 715 714 714 714 715 716 715 715 714 714 713 714 713 713 713 714 714 713 714 715 715 715 715 714 714 714 714 715 714 715 714 713 713 712 713 714 713 713 713 713 713 713 713 713 712 713 712 713 713 713 714 713 713 714 715 715 714 714 714 714 713 712 713 713 712 712 713 714 712 713 712 713 713 713 714 713 713 712 712 712 711 711 711 711 710 711 711 713 712 712 711 711
    709 708 709 709 710 710 710 709 709 709 709 708 709 711 710 710 709 710 710 711 711 711 710 711 711 711 711 710 710 710 710 711 711 713 713 713 713 713 713 713 712 711 710 711 712 711 712 712 713 712 713 713 713 712 712 712 712 713 713 713 711 712 712 712 712 712 712 711 711 712 713 713 713 712 712 711 712 713 714 713 712 713 712 715 715 715 713 712 713 714 715 714 713 713 713 713 712 712 713 713 713 714 713 713 713 713 713 713 714 715 714 713 712 714 714 714 712 714 714 714 713 714 714 715 714 714 712 712 713 714 715 716 715 715 714 714 714 716 715 715 714 715 715 716 716 716 715 715 714 713 711 713 713 715 714 715 715 715 714 715 715 715 713 712 711 712 712 713 712 713 714 714 713 713 713 714 713 714 714 714 713 713 712 714 714 715 715 716 715 715 714 714 714 713 712 712 713 713 712 712 713 712 712 713 713 714 715 715 713 713 713 713 712 712 713 713 713 712 712 712 713 713 713 712 711
    709 709 710 709 710 710 709 709 709 709 709 708 709 710 711 711 710 710 710 711 712 712 712 713 713 713 712 711 710 710 711 711 711 710 711 712 713 713 713 713 712 710 710 711 712 710 711 709 710 710 711 711 711 712 712 711 711 713 712 713 711 712 712 711 712 712 712 711 710 711 712 712 713 711 711 710 713 713 714 713 712 712 713 716 715 714 711 711 711 713 714 715 715 714 714 712 712 712 714 713 713 713 715 715 714 713 713 714 715 716 715 713 714 715 715 714 713 714 714 713 713 714 716 715 715 714 713 712 713 714 715 715 714 715 715 715 714 715 715 714 714 714 715 714 714 715 715 714 712 711 711 713 713 714 713 714 715 715 714 715 715 715 714 713 713 713 714 713 713 712 713 713 714 714 715 714 713 713 713 714 712 712 711 712 713 715 716 715 715 714 714 713 714 714 713 713 714 714 712 713 713 713 712 713 713 714 714 714 714 713 713 712 713 713 713 713 713 713 713 712 713 712 713 711 711
    707 709 710 709 709 709 708 707 706 708 709 708 707 708 709 710 709 710 711 712 712 713 712 713 712 713 712 710 709 710 711 711 710 711 711 713 713 713 712 712 712 711 711 710 711 710 710 709 710 710 711 710 710 712 711 712 711 713 713 714 713 712 711 711 711 712 712 712 711 711 711 712 713 712 712 711 713 712 713 712 712 713 714 716 714 714 711 712 711 712 713 714 715 715 715 714 713 712 713 714 714 715 716 716 714 713 713 715 715 716 714 714 714 716 714 715 714 715 714 714 714 714 715 715 715 713 712 712 713 714 713 714 712 713 712 713 713 714 715 714 714 715 715 713 713 714 714 713 711 712 712 713 712 712 711 712 713 714 714 715 714 714 712 712 712 713 713 714 712 711 712 712 713 712 713 712 712 714 712 714 711 712 710 712 713 714 715 715 715 714 713 714 714 714 713 713 713 713 712 713 713 713 712 713 713 713 713 714 714 713 714 714 714 713 713 714 714 714 713 713 713 714 714 713 713
    707 709 710 709 710 709 709 707 707 707 709 709 708 708 709 710 710 711 711 711 711 712 712 712 712 712 711 711 710 710 712 711 711 710 711 711 712 712 712 711 712 711 711 711 711 710 710 710 711 710 711 710 710 712 711 711 711 713 713 714 713 711 710 711 712 712 713 713 712 712 711 712 713 713 713 712 713 712 713 713 714 714 715 716 714 714 713 713 713 712 714 714 715 714 715 713 714 714 714 713 713 713 714 714 715 715 715 715 714 715 715 716 716 715 714 714 713 714 712 712 713 713 714 714 714 713 712 711 713 712 712 712 712 714 714 714 713 714 716 716 716 715 714 712 712 713 713 711 711 712 714 713 713 712 712 712 713 713 713 713 712 711 711 712 713 713 714 714 713 712 712 713 714 712 713 711 713 713 713 714 713 713 712 712 712 714 715 714 714 713 714 714 714 714 713 713 713 712 713 713 713 714 713 713 712 713 713 713 714 713 714 713 715 714 714 713 713 714 713 713 712 713 713 712 713
    708 709 710 710 710 711 710 708 707 707 708 709 709 710 709 710 709 711 710 711 710 710 710 710 710 711 711 711 711 711 711 711 711 711 712 712 711 712 711 712 711 711 710 710 709 710 712 712 712 711 711 710 711 712 711 711 711 713 713 714 713 713 711 712 712 713 713 714 713 714 713 714 714 714 714 713 712 713 714 715 714 714 714 713 713 714 714 714 714 713 714 714 714 713 714 714 714 714 714 714 713 713 712 713 714 714 712 713 712 714 715 715 714 713 712 714 713 713 712 713 713 713 713 714 713 713 714 712 713 712 713 712 712 714 714 715 714 715 715 715 715 715 714 713 713 714 713 712 712 713 712 712 713 713 713 712 712 712 712 711 710 709 710 712 713 713 712 713 712 712 712 712 714 712 713 712 713 713 713 714 713 715 714 714 713 714 714 714 714 713 713 713 714 713 713 712 713 712 712 713 712 712 712 714 714 714 713 714 714 715 714 713 713 713 713 712 712 713 713 714 714 713 713 713 714
    709 710 710 710 710 710 710 709 709 708 709 711 712 712 711 711 712 712 712 711 711 710 710 710 710 711 711 711 711 711 711 710 711 711 711 709 709 710 711 712 711 711 711 710 710 711 712 712 711 711 712 712 713 712 712 712 712 713 713 713 712 711 711 712 712 711 712 713 714 713 712 712 713 713 714 713 713 713 714 713 714 713 713 712 713 713 714 713 714 714 714 713 712 712 714 712 713 713 713 712 713 711 712 713 715 715 713 712 712 713 714 714 714 712 712 713 714 713 712 712 713 713 713 712 712 712 713 712 712 711 713 712 713 714 716 716 715 714 715 715 714 713 713 714 715 715 715 713 714 713 713 713 714 714 714 713 714 713 712 711 712 710 711 713 714 714 713 713 713 712 713 713 713 712 713 713 713 712 712 714 713 713 713 714 713 713 714 712 713 712 713 712 714 713 713 712 712 712 713 713 713 712 714 715 715 714 713 714 714 716 715 713 713 712 714 712 713 712 714 713 713 713 713 712 712
    708 709 710 711 710 710 709 708 708 708 709 711 711 712 710 710 711 711 711 711 711 710 709 710 710 710 710 710 711 712 711 711 711 711 712 711 711 712 712 713 711 711 710 709 710 712 712 712 712 712 713 713 713 712 712 712 712 712 712 713 711 711 710 711 712 712 712 712 713 713 711 711 712 713 712 712 712 713 713 713 713 713 712 712 713 712 714 712 714 714 714 713 713 713 712 712 712 712 712 713 715 714 714 714 716 714 714 713 714 713 712 713 713 712 712 713 714 714 714 714 714 714 712 712 713 712 712 710 711 711 713 713 713 714 714 716 714 714 714 714 714 713 713 714 715 715 714 714 714 713 713 713 713 713 713 712 712 713 713 714 713 712 712 714 715 714 714 713 713 712 713 713 712 712 712 714 712 711 712 712 712 713 713 714 713 713 713 713 713 712 713 713 714 715 714 715 715 715 714 715 715 713 714 715 716 714 712 713 713 716 715 714 713 711 712 711 712 712 713 714 715 714 712 711 711
    709 709 710 710 709 708 708 707 708 709 711 712 712 711 710 711 712 711 712 712 712 711 711 711 712 711 710 709 710 711 712 711 711 710 712 712 712 711 711 711 710 711 711 711 711 712 713 711 711 711 712 712 712 712 712 712 711 712 712 712 711 711 710 711 711 711 710 710 712 710 709 709 711 713 713 712 713 713 713 713 714 715 714 714 714 714 715 713 715 713 713 712 713 713 712 711 712 712 713 714 716 714 714 713 715 714 716 715 715 712 712 713 713 713 713 713 714 714 713 713 713 713 713 713 713 711 710 709 709 710 711 713 713 714 714 713 713 713 714 714 714 712 712 713 714 713 714 714 714 714 714 713 712 712 713 712 713 713 715 715 715 714 713 714 713 713 714 714 714 713 713 713 711 710 711 712 712 712 713 713 713 713 714 715 714 714 715 714 714 713 713 713 715 715 714 713 712 713 714 715 715 713 715 714 714 713 713 712 713 714 715 713 713 712 712 711 711 711 713 713 713 712 711 710 710
    710 711 711 710 709 709 708 708 708 710 711 712 711 711 710 710 711 711 711 710 710 710 711 711 710 709 708 708 709 711 712 713 710 710 711 713 713 712 711 711 710 710 710 711 711 712 712 712 711 711 710 711 710 712 712 712 710 711 710 712 710 711 710 711 712 712 711 710 711 711 710 712 712 714 712 713 712 713 713 713 714 715 714 715 714 714 714 715 715 714 712 713 714 715 713 712 712 713 715 715 716 716 715 714 714 714 715 716 716 714 713 713 712 713 712 713 713 713 712 713 713 714 714 714 714 713 711 710 709 711 712 714 713 714 713 712 712 713 714 713 713 712 713 713 713 713 713 714 713 714 712 712 711 712 712 712 712 712 713 714 713 713 713 714 713 714 714 714 714 714 715 715 713 713 713 715 713 714 714 714 714 714 716 716 714 713 714 714 713 713 713 714 716 714 713 713 713 714 714 715 716 715 715 713 713 713 712 711 711 712 713 713 713 712 712 712 711 711 712 713 712 711 710 710 711
    711 711 711 708 708 708 709 709 710 710 711 711 710 710 711 711 712 712 711 711 711 711 711 711 711 711 710 710 709 710 710 711 710 710 711 712 711 710 710 710 710 711 711 712 712 711 711 711 710 711 710 709 708 711 713 712 711 712 711 711 710 711 710 710 711 711 711 711 712 711 711 711 712 713 712 713 713 713 712 713 714 714 714 714 715 714 714 715 716 715 713 712 714 716 715 713 713 714 715 715 715 714 714 713 713 713 713 713 713 714 714 713 711 711 712 714 713 711 711 712 713 714 714 713 713 713 713 712 711 712 713 713 714 713 713 711 711 712 714 712 712 711 713 713 713 713 714 714 714 714 713 712 711 712 713 713 712 712 713 713 713 713 713 714 713 713 713 713 713 713 713 713 713 713 713 714 714 714 713 714 714 714 715 715 714 712 712 712 713 712 712 712 714 713 712 712 713 712 713 712 714 714 715 712 712 711 712 711 711 711 713 712 713 712 712 712 712 712 712 711 710 710 710 711 711
    710 710 709 707 707 707 708 708 709 709 710 710 710 710 710 710 710 711 710 710 710 710 711 711 711 710 710 710 709 710 709 711 711 711 712 712 712 712 712 712 711 711 711 711 711 711 711 712 712 712 711 711 709 712 712 713 711 712 711 711 710 712 711 710 710 710 712 711 711 711 711 712 712 713 712 713 713 713 711 713 713 713 712 713 715 715 713 714 715 716 713 712 713 716 715 714 714 714 714 714 714 714 714 714 712 712 710 712 712 714 715 714 711 710 711 714 713 712 712 714 714 715 714 713 713 713 713 712 711 712 713 714 713 713 713 711 711 712 713 712 712 712 714 714 714 715 715 714 714 714 713 712 711 713 713 713 712 712 711 713 712 712 711 712 712 713 713 713 713 713 712 712 713 715 713 714 712 713 712 712 712 713 713 714 713 712 711 712 712 713 712 713 713 714 713 714 716 715 714 712 713 714 715 713 712 712 712 712 711 712 712 713 713 713 712 713 714 713 712 711 711 711 711 711 710
    709 709 708 705 706 706 707 707 708 708 709 709 709 709 710 712 712 711 712 712 712 710 711 711 712 712 711 711 711 710 709 710 711 711 711 711 712 712 712 712 711 712 712 712 712 711 711 711 711 712 712 712 711 712 712 712 712 712 712 712 711 712 712 709 709 710 712 711 712 711 712 712 712 712 712 712 712 712 713 714 714 713 713 713 715 714 713 712 714 714 713 712 713 714 714 714 713 713 713 713 713 713 714 713 711 710 709 710 712 713 715 713 711 709 710 712 712 711 712 713 714 713 713 713 713 712 713 713 713 713 714 714 714 713 714 713 712 711 712 711 711 711 713 714 714 715 715 714 713 712 712 711 712 712 713 711 711 711 711 713 713 712 712 712 713 712 712 711 711 710 709 709 711 712 712 712 712 713 712 712 711 712 712 713 713 712 711 712 713 714 713 713 712 713 713 713 715 714 714 711 712 713 714 713 712 712 713 712 711 711 713 713 714 712 712 712 713 712 712 711 711 711 712 711 710
    709 709 708 708 708 708 708 707 708 709 709 709 708 709 710 711 711 711 711 711 711 709 710 711 712 711 711 711 711 710 710 711 712 711 710 710 712 713 712 712 710 711 711 711 712 712 712 712 712 713 712 712 712 713 712 712 712 711 712 712 712 712 712 710 711 711 712 712 712 713 713 714 713 711 711 712 712 711 712 712 713 713 712 711 712 713 713 712 713 713 713 711 711 712 713 714 713 713 713 712 712 712 713 714 712 712 711 712 713 714 715 713 711 710 712 713 713 713 713 714 714 714 714 715 714 713 713 714 713 713 712 713 713 714 714 713 712 712 713 712 713 713 714 715 715 715 715 715 713 712 712 712 712 710 710 710 711 711 711 711 712 712 712 712 713 713 713 711 711 711 710 711 712 712 711 712 712 714 714 714 712 712 713 715 715 715 712 713 714 715 714 713 712 712 713 712 713 714 714 713 713 713 712 713 712 714 713 713 712 712 713 713 714 714 714 713 714 713 712 712 712 713 711 711 711
    709 709 709 709 709 709 708 708 708 709 709 709 708 709 710 711 712 710 711 711 712 711 711 710 711 712 711 711 711 711 710 711 711 710 709 709 711 712 711 712 710 711 710 711 712 712 713 712 713 713 712 712 712 712 713 713 713 711 711 711 712 711 711 710 711 712 712 712 712 712 713 713 712 709 710 710 711 710 711 711 712 712 712 711 711 712 713 712 712 712 713 711 711 712 714 713 713 713 714 712 712 712 714 714 713 713 712 712 713 713 715 712 711 710 711 712 710 710 711 712 712 711 712 712 712 712 713 714 714 713 713 712 712 712 713 712 713 712 713 713 713 713 712 713 713 713 713 713 712 711 712 712 712 710 710 710 711 711 711 711 712 712 712 711 714 713 713 710 711 710 711 712 713 713 712 712 713 714 715 714 713 712 714 714 714 714 714 713 713 713 712 710 710 711 713 711 713 713 714 713 714 714 713 713 714 714 713 711 711 712 713 712 713 712 713 713 713 712 711 712 712 712 711 711 711
    708 709 710 710 710 710 709 708 708 709 708 709 709 709 709 709 709 708 708 709 711 710 710 709 710 711 711 711 711 711 710 711 711 711 710 711 711 712 711 711 710 711 710 710 710 711 712 714 713 712 711 712 712 712 711 712 712 712 711 711 712 712 710 709 710 712 712 712 711 711 712 711 711 709 710 710 711 710 710 710 711 712 712 712 711 713 713 713 712 713 713 711 710 712 714 714 713 714 713 712 711 712 712 712 711 711 712 713 713 713 713 711 711 710 711 712 711 711 710 711 711 711 711 712 711 711 712 712 712 710 710 711 711 711 711 711 712 713 713 714 713 714 712 713 712 713 713 715 714 713 713 714 713 713 712 713 713 713 713 712 713 713 713 712 714 714 714 713 713 712 713 713 714 714 713 713 714 714 715 715 714 714 715 715 715 715 715 715 713 713 712 711 712 713 714 713 714 715 715 714 714 714 712 713 713 714 713 712 711 712 713 714 713 712 712 713 713 712 711 713 712 713 712 710 710
    708 708 710 709 709 708 708 708 707 707 707 708 709 709 709 708 709 708 708 710 712 711 710 708 709 709 710 710 712 712 711 709 710 710 710 710 711 712 712 712 711 711 712 711 711 710 712 712 713 711 712 712 713 712 712 712 712 711 711 710 712 712 710 709 709 711 711 711 711 712 712 711 711 710 711 709 710 711 711 712 711 712 712 712 712 713 712 711 711 712 712 711 711 712 714 714 713 713 712 711 711 711 712 712 710 710 711 713 712 712 711 711 711 711 710 711 710 710 709 711 711 711 711 712 712 711 713 713 713 712 712 713 713 713 714 714 715 714 714 715 716 717 715 714 713 714 716 717 716 716 716 716 716 716 717 716 716 715 716 716 716 715 714 713 715 715 716 715 716 714 714 715 715 715 715 715 715 715 715 715 715 714 715 713 714 714 715 714 713 713 712 711 712 713 714 712 713 714 714 713 712 712 712 713 712 712 711 711 711 712 712 711 711 710 711 711 712 711 710 711 711 711 712 710 710
    708 709 709 709 708 708 709 708 707 707 708 708 709 709 710 709 709 708 708 709 710 710 710 709 709 709 709 710 711 711 710 709 709 710 710 710 711 711 711 711 712 712 712 711 711 710 711 712 712 712 712 713 713 712 711 711 712 712 712 712 713 713 712 711 710 711 711 711 712 712 712 711 712 713 713 712 712 712 712 714 712 713 711 713 713 714 713 712 712 713 713 713 713 714 715 716 715 715 713 712 712 713 714 713 712 713 714 716 714 715 713 713 713 714 714 715 714 714 713 714 714 715 714 715 716 715 715 715 715 715 715 716 716 718 718 717 716 716 716 718 719 721 720 718 716 717 720 722 720 719 718 718 719 720 721 720 720 719 719 719 719 718 718 717 718 718 719 719 720 718 718 717 716 716 716 717 716 716 715 715 715 714 713 714 715 715 714 714 714 715 714 714 715 715 714 713 714 715 714 714 712 713 712 713 711 711 711 712 711 712 712 711 711 711 713 713 713 713 712 713 712 713 712 711 711
    708 709 709 709 708 707 708 709 709 708 708 708 709 710 711 711 711 709 710 710 710 709 709 709 709 709 709 710 711 711 710 709 709 709 709 710 712 712 711 712 712 712 712 712 713 712 712 711 712 713 714 714 713 713 712 712 713 712 712 712 714 713 713 713 713 713 714 713 715 715 716 716 716 716 716 716 715 715 716 716 715 715 714 715 715 715 714 713 714 715 716 716 716 716 716 717 717 717 717 717 716 716 718 717 717 717 718 718 717 717 718 717 717 718 720 718 718 718 718 719 718 719 719 720 720 718 719 719 720 719 720 722 721 721 721 721 721 719 720 720 723 723 723 720 719 719 721 722 722 721 721 719 720 719 722 721 721 718 719 718 719 718 719 718 719 718 718 717 718 717 717 717 716 717 718 717 717 716 716 715 714 713 713 713 714 714 712 713 714 714 713 714 715 715 713 711 712 713 713 714 712 714 713 713 711 712 712 713 713 714 713 711 712 711 713 713 713 712 711 711 711 711 711 711 711
    708 709 710 710 708 708 708 710 709 709 707 707 708 709 710 710 709 709 709 709 708 708 709 710 710 710 711 711 711 711 710 710 711 712 712 713 713 713 712 712 712 712 711 713 712 712 711 711 711 713 714 715 713 713 712 713 714 714 714 713 714 714 715 716 717 717 717 717 716 716 716 718 718 718 719 720 719 718 718 718 717 718 718 719 719 718 717 716 718 719 721 721 721 720 721 722 721 722 720 722 721 722 722 722 721 722 721 721 721 721 722 720 721 721 721 720 721 722 722 722 721 722 722 723 722 721 721 720 721 721 721 722 722 721 720 720 721 721 720 720 720 721 721 721 720 719 719 721 720 720 720 719 718 719 721 721 719 718 719 718 718 717 718 717 717 717 716 716 716 717 718 717 718 719 719 718 717 716 716 715 714 714 713 715 715 715 713 714 715 715 715 716 718 716 715 713 714 715 714 715 714 715 714 714 713 714 714 714 713 713 713 713 713 713 713 713 712 713 712 712 713 714 711 711 710
    707 708 709 709 707 706 707 709 709 709 708 708 709 710 710 710 709 710 710 711 711 710 710 710 711 711 712 712 712 710 711 710 711 711 712 713 713 713 712 712 711 711 712 712 712 712 712 711 711 712 713 713 713 713 714 714 714 715 714 713 714 715 717 716 718 718 720 719 718 718 719 720 721 720 720 720 719 719 720 721 721 721 720 720 720 718 718 717 718 719 720 721 720 719 721 722 722 721 720 721 721 721 720 720 719 719 720 720 721 719 719 718 719 720 719 718 719 720 721 720 719 720 722 722 720 719 719 719 720 720 721 722 721 720 719 719 720 720 720 719 719 718 718 718 719 718 718 718 719 719 719 718 718 717 718 717 717 716 717 717 717 716 717 717 717 715 715 714 714 715 716 716 716 718 719 719 718 717 717 716 716 716 716 715 715 714 713 714 714 715 715 715 716 715 713 711 712 713 715 714 714 714 714 714 714 714 714 714 714 713 713 712 713 712 711 711 710 711 711 711 711 711 711 711 711
    707 710 710 710 708 708 708 709 709 710 709 710 709 710 709 709 708 709 710 710 710 710 711 710 710 710 711 711 710 710 712 712 712 712 713 713 713 713 712 712 711 711 711 711 712 712 713 712 712 712 713 713 713 714 714 714 715 715 716 716 717 717 718 718 719 720 719 718 716 717 718 720 719 719 719 718 717 717 719 721 720 720 720 720 719 717 717 717 718 718 719 720 719 719 720 722 721 720 719 722 722 721 719 719 718 718 719 720 720 720 719 719 719 720 718 718 719 721 721 720 719 720 721 720 718 719 719 720 719 719 720 719 718 718 717 717 718 719 719 719 718 718 717 717 717 718 718 717 718 718 718 718 717 717 718 717 717 715 716 716 716 715 716 717 716 715 714 714 714 715 716 717 717 719 719 719 718 717 718 718 718 718 717 717 716 716 715 716 716 716 715 715 715 715 715 713 713 713 714 714 714 714 714 714 714 713 713 714 713 713 712 712 712 713 711 712 711 713 711 712 712 713 712 712 711
    709 709 709 709 709 708 709 709 710 710 712 712 712 711 710 710 710 710 710 710 711 711 712 710 710 710 710 709 709 710 711 712 711 710 711 711 712 712 712 712 711 711 712 713 713 713 714 712 713 712 713 713 714 714 715 715 715 714 715 716 718 718 719 717 717 717 717 717 717 717 718 718 717 717 716 716 715 717 718 719 720 719 719 718 718 717 717 718 719 718 719 720 719 718 718 720 719 717 717 719 720 719 718 717 718 717 718 718 719 718 718 718 719 720 717 717 718 720 719 717 718 718 719 718 716 717 717 717 716 716 717 717 716 717 716 715 715 716 718 717 717 715 715 715 716 716 715 715 717 716 716 715 715 715 716 716 716 714 714 712 713 713 715 717 716 715 714 712 711 712 714 714 716 718 718 718 717 718 718 718 718 718 718 717 716 714 714 715 715 714 713 713 714 714 713 712 711 712 714 714 714 713 712 713 713 713 713 714 714 713 713 713 713 713 712 712 711 711 711 711 711 711 712 712 711
    707 709 709 709 709 709 708 708 709 710 711 711 710 710 710 710 709 709 709 708 709 709 710 710 710 710 710 709 709 711 711 712 711 712 711 712 711 712 712 712 712 712 713 713 713 713 713 712 713 714 714 714 714 715 715 715 713 714 715 716 717 718 719 717 715 716 715 716 715 716 717 716 714 715 715 715 715 716 717 717 717 716 717 716 716 715 716 717 718 717 717 718 717 718 717 718 716 716 717 718 719 718 717 717 717 717 716 715 716 717 718 718 718 718 717 718 718 718 717 717 718 717 717 716 717 717 716 716 716 716 715 715 715 715 713 713 713 714 716 717 716 716 714 715 715 714 713 713 715 716 714 714 713 713 715 715 715 713 712 711 712 713 714 714 714 713 712 712 712 713 714 714 716 718 718 718 718 718 717 717 717 717 716 717 716 716 715 714 713 713 714 715 715 714 713 713 712 712 713 714 714 713 713 713 713 713 714 714 714 714 713 713 713 714 713 713 711 711 711 711 712 712 713 713 712
    707 708 708 709 709 708 708 708 708 709 711 711 711 710 711 711 711 710 710 708 709 709 711 710 710 710 711 711 710 711 711 712 711 710 710 711 711 712 712 712 711 712 712 712 713 712 713 712 713 713 713 714 714 715 715 715 714 714 714 714 716 716 718 715 714 714 714 714 715 715 716 713 713 713 714 713 714 715 716 714 714 714 715 714 715 715 716 715 716 716 715 715 715 715 715 715 714 714 715 715 716 715 716 715 717 716 716 715 715 715 716 717 717 716 717 717 718 716 716 716 718 715 714 713 715 715 714 712 713 712 712 713 714 713 711 710 711 713 715 715 714 713 713 713 714 712 711 710 711 711 710 711 710 710 710 711 711 710 710 710 711 711 711 711 711 710 708 708 710 710 710 711 714 715 717 718 719 718 718 716 716 716 716 716 716 716 715 713 713 712 714 715 715 714 713 713 712 712 713 713 713 713 713 713 713 713 714 714 713 712 712 713 714 714 713 712 711 712 712 712 712 711 713 713 713
    706 709 708 709 709 708 708 708 709 708 709 707 709 709 710 710 710 710 709 708 708 709 710 710 710 711 711 711 711 712 712 712 711 710 710 711 710 711 710 711 709 710 709 710 710 712 713 714 714 714 714 715 715 715 714 715 714 715 715 715 715 716 715 714 714 713 712 711 712 713 714 713 712 712 712 712 712 714 714 713 711 711 713 712 715 715 715 713 713 713 713 713 713 714 713 714 713 714 715 715 715 714 714 713 713 714 713 713 712 714 714 715 714 715 715 715 715 715 715 715 714 712 712 713 713 712 711 710 710 711 712 714 713 713 710 710 710 712 713 713 712 712 711 712 712 711 710 709 709 709 707 709 708 708 708 708 707 708 708 709 709 709 709 708 708 706 706 707 709 708 708 709 711 713 716 718 720 720 719 717 715 716 716 717 717 716 715 713 714 714 714 714 714 713 712 712 711 710 712 712 713 713 713 713 713 714 714 714 713 713 712 713 713 713 713 713 713 714 713 713 712 712 713 713 713
    709 710 709 709 710 709 708 708 709 709 709 707 709 708 710 709 710 711 710 708 708 708 710 710 711 712 712 711 711 711 712 712 710 709 710 711 710 711 710 711 710 711 710 711 711 713 713 714 714 713 714 715 716 715 714 714 715 715 716 718 719 716 712 709 710 711 710 709 711 711 712 710 710 711 712 712 711 712 711 710 709 708 711 711 713 713 713 713 712 711 711 712 712 712 712 712 712 712 712 713 712 712 712 711 711 710 710 710 710 711 712 712 711 710 711 712 713 712 712 712 713 711 712 711 711 710 710 709 707 706 709 711 711 709 709 709 709 709 711 710 709 708 710 709 710 709 708 704 704 705 706 707 706 705 704 703 703 704 706 705 705 704 705 705 705 703 703 702 703 704 705 705 707 709 713 716 718 719 718 716 715 715 716 716 716 714 715 714 715 713 712 712 712 712 712 710 709 709 711 712 712 712 712 712 713 713 713 713 712 712 712 712 712 712 712 711 712 713 712 711 711 711 712 712 713
    709 709 708 708 709 710 709 707 707 708 709 707 708 708 709 709 709 709 709 709 708 708 709 711 711 711 711 711 710 711 712 712 711 711 710 711 710 711 710 712 711 712 710 711 711 713 713 714 714 714 715 716 716 715 715 714 714 715 716 720 721 717 711 708 707 707 707 708 710 711 710 710 709 711 711 714 712 711 709 709 708 708 709 711 712 711 711 710 710 710 710 711 711 712 711 712 711 712 710 711 710 711 710 710 708 708 708 708 707 708 709 709 708 707 708 708 710 709 709 709 709 709 710 710 709 709 709 710 707 708 708 711 710 710 709 708 707 708 709 709 708 707 707 707 708 708 706 703 703 704 706 706 704 703 703 701 701 701 703 702 702 703 702 701 699 699 700 701 700 701 703 704 703 704 708 714 717 718 717 716 715 716 717 716 716 715 715 716 715 714 712 712 712 713 713 712 711 710 712 713 713 713 712 712 711 713 712 712 711 712 712 712 712 713 712 712 711 712 711 711 711 710 711 712 713
    710 710 708 708 709 710 708 707 707 708 710 709 709 708 709 709 710 710 710 710 710 710 711 711 710 710 711 711 710 710 711 711 711 710 711 710 711 711 711 712 711 712 712 712 711 711 712 712 712 713 714 714 715 715 715 715 715 715 717 721 723 718 710 707 706 707 707 709 711 710 710 709 710 710 711 712 711 710 709 708 708 707 708 709 711 709 709 710 710 709 708 708 710 710 711 711 710 710 709 710 709 709 708 707 707 707 708 707 707 706 707 706 707 705 706 706 707 707 708 708 710 709 710 708 707 707 708 709 707 707 707 707 706 705 706 704 705 705 707 707 707 705 705 705 707 706 705 701 701 702 705 703 701 700 699 698 698 699 701 700 699 699 699 697 695 695 697 698 698 699 701 701 699 699 703 710 715 716 716 715 716 716 717 716 716 715 716 715 713 712 712 713 714 714 714 711 710 710 712 713 713 713 713 713 712 711 711 711 711 711 712 711 711 712 711 711 709 710 711 711 711 710 711 711 712
    708 708 707 707 708 709 708 707 707 707 709 709 709 708 709 710 711 710 710 710 710 710 709 710 708 708 708 710 710 710 710 711 711 711 711 710 710 711 711 712 711 711 711 711 710 711 712 713 713 713 714 715 714 715 716 716 716 715 718 722 723 715 709 708 707 707 706 708 709 709 708 709 709 708 708 708 708 707 708 708 709 708 708 708 709 708 708 708 708 709 708 707 708 709 711 711 709 709 708 708 708 707 705 704 704 706 707 707 706 704 704 704 706 705 705 705 705 706 706 706 706 706 706 706 705 706 706 707 706 706 705 704 703 704 704 703 703 703 705 705 705 704 704 703 704 704 704 702 700 701 701 701 700 700 701 699 698 698 697 697 696 698 696 695 693 694 695 696 695 697 697 699 697 698 699 707 713 715 716 715 717 718 718 717 716 716 716 716 714 713 713 715 716 716 715 713 711 712 713 714 715 715 714 713 712 711 711 711 711 710 711 711 712 712 712 712 711 712 713 713 713 712 714 713 712
    709 708 707 707 708 708 707 707 708 708 709 709 709 708 709 709 710 710 709 709 710 710 709 709 707 707 708 709 709 710 710 710 710 709 710 711 712 712 712 712 712 712 713 712 713 713 714 714 714 714 714 714 715 715 717 716 716 715 720 725 723 713 708 708 707 707 707 707 706 705 706 707 707 706 705 704 705 704 707 707 708 707 707 706 706 707 708 709 708 708 707 706 706 706 709 707 707 706 706 706 705 705 703 702 702 704 706 705 705 704 703 702 704 704 703 703 703 704 704 704 705 704 705 704 705 702 703 702 703 702 703 701 700 700 701 701 702 700 701 700 702 703 704 701 701 701 702 701 698 698 699 699 698 698 699 698 699 698 696 694 693 694 694 694 693 694 694 694 695 695 696 696 697 697 698 702 710 714 716 716 716 717 717 716 715 715 715 714 713 711 711 712 713 714 713 712 712 713 713 714 714 714 713 713 714 712 712 711 712 712 712 711 711 711 712 712 712 712 713 712 712 711 713 713 712
    708 708 708 708 708 708 707 707 707 708 709 709 709 708 709 709 708 708 707 708 709 710 709 709 707 708 709 710 710 711 711 711 711 711 710 711 711 711 711 712 711 711 711 712 713 714 714 715 716 715 715 714 715 715 716 715 715 717 723 727 719 709 706 706 707 708 707 706 706 705 704 704 704 704 703 702 702 702 705 706 707 706 705 704 703 704 705 706 706 707 706 704 704 704 706 704 705 703 703 702 701 702 702 701 700 701 703 704 703 701 701 700 702 702 701 701 701 703 703 702 701 702 702 703 703 701 701 700 700 699 700 699 698 698 697 699 699 698 698 698 699 701 701 699 697 698 699 698 697 697 697 696 697 697 698 697 697 696 694 694 692 693 691 691 692 694 693 691 692 692 693 693 695 695 696 697 707 712 716 716 717 719 718 717 716 717 717 718 715 713 712 713 714 715 713 713 713 714 713 714 714 715 713 713 713 714 712 712 713 714 713 713 713 713 713 713 713 713 714 713 712 713 713 713 712
    708 708 708 708 709 708 708 709 709 710 710 710 710 710 710 710 710 710 708 709 710 711 710 709 708 709 709 709 709 709 710 710 711 710 710 711 711 711 710 711 710 711 711 712 714 714 714 714 715 715 714 713 714 714 715 714 715 718 725 726 714 705 705 705 706 706 706 706 706 705 704 704 704 702 702 701 703 703 706 706 707 705 704 703 703 703 704 704 704 705 705 704 703 702 703 700 701 700 700 699 699 699 700 700 700 700 701 701 701 699 699 698 699 699 698 698 698 700 699 699 698 699 699 698 698 696 697 695 696 694 696 695 697 696 696 696 695 695 695 695 696 696 697 694 694 694 695 695 696 694 693 691 692 692 693 692 693 692 693 693 692 691 689 689 689 690 690 689 689 690 691 690 692 691 692 693 701 709 715 718 719 719 717 717 716 717 717 717 715 713 712 713 713 713 713 712 712 713 712 713 713 713 713 712 713 712 712 713 714 714 714 713 713 712 712 711 711 712 712 711 710 710 711 713 712
    709 708 708 708 709 710 708 708 708 710 709 710 710 709 708 709 709 710 709 710 710 710 709 710 710 710 710 711 710 710 709 710 710 712 712 710 710 710 709 709 709 710 710 712 712 712 712 713 714 715 714 712 712 713 713 715 715 721 728 724 709 703 703 702 702 702 703 705 705 705 703 703 703 702 702 701 701 703 705 705 706 704 702 701 700 700 700 699 700 702 702 702 700 699 698 697 698 696 696 696 696 697 697 696 697 697 697 697 697 697 696 695 695 696 696 697 696 697 696 696 694 696 696 696 694 693 694 694 694 692 693 693 694 694 693 693 692 692 693 693 692 691 691 691 691 690 691 692 692 692 689 689 689 689 688 688 687 689 688 688 687 687 686 686 686 687 687 685 685 685 686 686 686 686 687 687 694 703 712 716 717 717 716 717 717 719 719 718 717 715 715 715 715 714 713 713 712 713 713 714 713 714 714 713 712 712 712 713 713 713 713 713 713 712 712 711 711 712 712 712 710 712 712 714 713
    708 706 707 708 709 710 710 709 709 710 709 710 709 708 707 708 709 710 710 711 710 710 708 710 710 711 710 709 709 710 709 709 709 710 710 709 709 709 709 709 710 711 712 711 711 711 712 713 713 714 715 714 712 713 714 715 717 722 732 722 708 702 702 700 698 696 699 701 702 702 702 702 703 701 701 700 701 702 703 703 703 702 701 698 699 698 698 697 698 698 700 700 699 696 695 694 695 693 693 692 694 694 694 692 693 693 693 693 695 694 694 692 691 691 693 694 693 692 692 691 691 692 693 691 690 688 689 688 690 689 690 691 693 691 689 687 688 688 690 689 688 687 687 687 687 687 687 689 689 687 685 686 685 686 684 683 682 684 685 684 683 683 683 682 683 683 683 681 682 683 683 683 682 681 682 683 688 695 708 713 716 715 715 716 715 716 717 716 715 713 713 712 713 713 713 713 713 714 713 713 713 714 714 713 712 711 711 713 713 713 713 712 712 711 712 711 711 711 711 711 709 710 711 713 713
    708 707 708 708 709 709 708 708 708 709 709 708 707 707 707 707 708 709 709 710 709 710 709 709 709 709 710 710 710 711 710 710 709 710 710 710 711 710 709 709 711 712 713 712 711 711 713 714 715 716 716 714 712 712 714 716 718 726 736 719 705 700 700 698 697 695 698 699 700 698 698 700 702 701 700 699 699 699 699 699 700 701 698 696 696 697 697 696 696 696 696 695 695 692 692 691 692 690 690 690 692 691 691 688 689 689 691 689 690 689 690 690 688 688 690 691 689 687 688 688 688 688 690 690 689 687 686 684 685 686 689 690 691 688 686 684 686 686 686 685 685 686 685 685 686 686 685 685 684 684 682 683 683 684 682 680 679 681 681 679 679 679 679 677 678 678 678 676 677 677 678 679 678 677 677 678 681 690 703 710 714 714 715 716 715 716 717 715 715 713 714 712 712 713 714 715 715 714 712 712 712 713 714 714 714 712 711 712 712 712 712 712 711 712 712 712 711 710 711 711 711 711 711 711 712
    708 708 708 708 708 707 707 708 709 710 710 710 708 708 707 708 709 710 710 710 710 711 710 710 709 710 711 711 711 711 711 710 710 710 711 711 711 711 711 711 712 713 714 712 711 711 713 714 715 715 716 715 715 714 715 717 722 732 734 712 701 697 697 696 696 696 698 698 698 697 696 698 699 698 697 697 698 698 697 698 699 699 696 694 694 695 695 694 694 693 694 692 692 690 690 689 688 687 688 689 690 689 688 686 686 685 689 687 687 685 687 687 686 685 687 687 687 684 684 685 685 685 686 686 686 684 683 681 682 684 687 688 687 685 684 683 685 685 685 683 683 684 683 684 684 683 682 682 681 681 680 680 680 681 680 677 676 677 678 679 679 677 677 675 677 675 674 673 672 673 675 676 677 676 675 676 678 685 698 708 714 715 716 716 716 716 716 715 715 713 713 713 713 713 713 713 714 712 711 711 712 713 713 712 712 712 711 712 711 712 712 712 711 711 711 712 711 710 711 711 712 711 710 711 711
    709 709 709 708 708 707 707 708 709 710 710 710 710 710 709 708 709 710 710 710 708 708 709 709 709 710 711 712 711 710 710 710 711 711 712 712 713 712 711 711 712 713 713 713 712 711 713 714 716 716 716 715 715 714 714 717 725 738 723 702 694 692 692 693 694 695 696 696 695 695 693 694 694 694 694 694 696 694 694 695 696 696 693 691 691 692 691 690 689 689 689 687 688 687 686 684 682 682 684 685 685 686 686 683 684 684 687 685 683 681 684 686 683 682 683 683 683 681 682 682 683 683 684 683 683 681 680 680 681 683 684 684 683 683 683 684 686 685 682 679 679 680 680 681 682 681 679 676 676 676 677 676 677 676 677 676 675 675 675 674 675 673 674 673 674 672 671 669 669 669 671 672 674 674 671 671 672 678 691 705 714 715 716 715 717 716 717 715 714 713 713 714 713 713 712 713 713 712 712 712 712 712 712 712 712 713 713 714 713 712 712 712 712 711 711 712 712 711 712 712 713 712 711 711 711
    709 709 708 707 707 707 708 708 709 710 710 710 709 710 708 708 708 709 709 709 708 708 709 710 710 710 711 711 710 710 710 710 710 711 711 711 712 711 711 711 712 713 713 712 712 712 713 714 715 715 715 715 715 715 715 720 731 742 713 696 689 690 690 692 691 693 693 693 692 692 690 690 690 691 690 691 692 692 691 692 692 691 688 689 687 688 685 686 685 686 685 686 685 685 683 682 680 680 681 682 681 682 683 682 682 682 684 683 682 680 682 682 680 679 680 682 681 681 680 681 683 683 683 682 681 679 679 678 680 681 681 681 679 679 679 681 682 681 678 676 675 675 675 676 677 677 674 673 672 673 672 672 672 672 672 670 669 668 669 669 669 669 670 669 669 667 666 666 667 668 668 669 669 670 669 668 667 668 679 698 711 716 716 716 717 717 717 715 715 714 714 716 714 712 711 711 712 713 714 715 714 712 711 712 712 713 713 714 713 713 712 712 712 711 711 712 712 712 712 712 711 711 711 711 711
    708 707 708 707 708 707 708 707 708 709 708 709 708 709 708 707 706 707 708 708 708 707 708 708 709 709 709 709 710 709 710 710 710 710 710 711 712 710 710 709 710 711 712 711 712 711 712 713 713 713 713 715 714 714 715 721 735 738 704 690 685 686 686 688 687 688 687 686 685 684 684 683 684 684 684 685 686 686 685 686 686 686 684 684 684 683 681 681 680 680 679 678 677 678 678 675 675 675 677 676 676 675 675 674 674 674 675 674 675 674 675 673 672 671 672 673 673 671 671 672 674 674 675 674 673 669 668 667 668 668 669 669 667 668 668 670 671 671 669 667 667 666 666 666 666 667 667 665 664 662 662 663 664 663 663 661 662 660 661 660 661 661 661 662 662 660 660 662 664 665 664 662 662 663 664 662 661 661 671 690 707 715 716 716 717 717 718 715 716 715 716 716 715 713 713 712 712 713 715 714 713 711 711 712 713 713 713 714 714 712 712 712 714 712 712 712 713 713 712 711 710 710 710 711 712
    708 708 708 707 707 707 707 707 708 709 709 710 708 708 707 708 707 707 708 709 709 709 709 708 709 709 709 709 710 710 710 710 710 709 709 709 710 710 709 709 710 712 713 711 710 710 711 712 711 712 712 715 713 715 716 726 743 729 694 683 679 681 680 680 677 677 676 676 674 673 673 673 673 673 673 676 676 676 674 675 674 674 674 676 676 675 673 673 673 673 671 669 668 670 670 668 667 668 670 669 668 667 666 665 664 666 666 667 667 667 667 666 666 666 666 666 665 665 665 665 668 669 668 667 666 665 662 660 660 661 661 661 660 663 663 665 664 666 665 664 663 663 663 662 661 662 663 663 662 660 661 661 661 660 660 659 660 658 659 659 659 660 660 661 660 659 658 660 663 664 662 660 659 661 661 661 660 660 668 687 704 714 716 717 717 717 717 717 717 718 717 715 714 714 714 713 712 712 714 714 714 713 712 713 713 714 714 714 712 711 711 712 713 712 710 711 712 713 711 711 711 711 711 713 713
    708 708 709 708 708 706 707 706 707 708 709 710 710 709 708 707 707 707 708 708 709 709 709 708 708 709 710 710 711 710 711 711 710 709 709 709 711 709 708 707 708 710 710 709 710 710 712 712 712 712 713 715 715 716 718 729 746 713 682 671 669 670 668 666 664 664 663 662 663 663 664 662 662 662 663 665 665 665 664 664 664 664 665 666 667 666 666 666 667 666 664 661 661 662 664 662 662 662 664 664 665 664 662 660 660 661 662 661 662 662 663 663 663 662 662 661 660 660 662 662 663 663 663 662 662 660 657 656 656 657 657 658 658 660 662 663 663 664 664 663 662 663 664 662 661 660 662 661 662 660 662 662 662 661 660 659 661 660 661 659 660 660 661 661 661 660 660 661 664 664 662 660 661 662 660 660 661 664 675 693 707 713 715 716 717 717 717 716 716 716 715 713 713 713 714 712 712 711 712 712 714 713 713 713 713 714 714 714 713 712 712 713 714 713 712 712 713 713 712 710 711 711 712 713 714
    708 709 708 708 707 706 706 706 706 708 709 711 710 710 708 709 709 709 708 709 708 708 708 707 706 707 709 710 710 710 710 710 710 710 710 711 712 712 710 710 709 712 711 711 710 712 714 714 714 714 714 716 716 717 721 733 747 706 676 666 664 663 661 660 658 659 656 657 659 662 661 659 659 659 660 661 661 661 660 659 660 660 662 662 663 663 663 664 665 666 665 663 662 663 663 663 662 662 662 663 664 664 663 664 665 666 666 666 666 666 666 666 665 665 663 664 662 664 666 667 666 667 666 665 664 662 660 660 660 662 663 664 664 667 669 670 669 669 668 667 667 668 669 670 670 669 669 668 667 667 669 670 668 667 666 666 665 665 666 666 667 669 669 667 666 665 665 665 667 668 665 665 666 667 663 662 663 668 682 700 711 715 715 715 715 716 716 716 715 716 714 714 713 713 713 713 714 714 714 714 715 714 714 714 714 714 714 713 712 712 712 712 712 712 711 712 712 712 712 711 712 712 712 714 713
    707 708 708 709 708 708 706 706 706 707 708 710 711 710 708 708 709 710 709 709 708 708 707 707 707 707 708 709 709 709 710 710 709 710 710 710 711 712 711 711 710 711 710 712 712 713 715 715 715 714 715 715 716 717 720 729 743 711 677 664 661 660 660 659 658 659 657 658 659 663 664 662 663 663 664 662 662 661 663 662 664 664 666 666 667 665 665 664 666 667 667 667 666 667 667 667 666 667 667 669 670 669 670 670 671 670 670 670 672 671 670 669 667 667 666 666 666 668 669 670 669 668 668 667 666 664 664 665 667 667 667 666 667 670 671 672 671 670 671 670 671 670 672 673 673 672 672 670 669 669 670 671 670 669 668 667 667 666 667 668 669 671 672 670 669 668 669 668 668 668 668 669 670 670 668 665 666 672 688 705 714 716 715 716 715 716 716 716 715 715 715 714 714 712 712 712 714 714 713 712 713 713 712 712 712 712 712 712 713 713 712 711 712 713 713 712 713 712 712 711 711 711 711 712 712
    707 708 708 709 708 709 707 708 707 708 708 710 711 711 709 710 710 711 710 710 707 707 706 707 706 707 709 710 709 709 710 710 709 710 710 711 710 713 713 714 712 713 713 714 714 714 713 714 713 714 715 715 715 715 718 726 740 723 684 670 665 665 664 665 662 664 663 664 663 666 668 669 669 669 669 667 668 668 669 669 670 669 670 669 670 668 668 669 670 672 672 673 672 671 670 670 671 672 672 673 673 672 672 673 674 673 673 672 673 672 672 672 671 671 670 670 669 670 671 673 671 671 671 670 668 668 669 670 671 670 670 670 671 674 675 675 675 674 675 674 674 672 673 675 675 675 675 675 672 671 671 672 672 671 672 672 670 669 670 673 674 675 677 675 673 672 673 671 672 672 673 673 674 675 673 671 671 677 693 708 715 716 716 716 715 717 716 717 715 715 714 715 715 714 712 713 714 715 713 713 712 712 712 711 711 712 712 713 714 713 711 711 712 712 711 711 711 711 710 711 711 711 711 712 712
    706 707 707 708 708 707 707 708 709 708 708 709 711 710 708 707 709 710 710 709 709 709 709 709 710 709 711 710 709 709 710 709 708 709 709 710 708 710 711 711 710 711 712 713 713 713 712 712 712 713 715 715 713 712 715 721 735 734 694 675 669 669 670 670 667 666 666 666 666 667 669 669 670 670 671 670 671 670 672 670 671 671 672 670 672 669 670 668 672 673 673 673 674 673 673 672 674 674 673 674 675 676 674 674 673 674 674 673 672 671 673 673 674 673 673 673 672 672 674 674 673 672 672 672 673 672 673 674 675 674 673 672 672 675 675 675 676 676 677 674 675 674 675 674 674 674 674 676 675 674 672 671 673 673 675 674 673 672 674 675 676 676 678 677 675 674 676 674 675 673 676 676 678 677 677 676 675 683 698 711 715 715 715 715 716 716 716 716 715 713 713 714 715 714 713 713 713 713 711 711 711 712 711 711 711 711 711 712 714 714 712 711 712 713 713 713 712 711 710 711 711 711 711 711 712
    706 706 707 708 708 707 708 710 710 709 707 708 709 709 708 708 708 710 709 709 709 708 708 708 709 709 710 710 709 709 710 710 708 710 711 712 710 711 710 710 710 711 713 713 713 713 712 711 712 713 714 714 713 713 715 719 729 738 708 684 675 675 675 674 671 670 669 670 670 671 671 671 672 673 674 673 675 675 676 675 675 673 674 672 673 671 672 673 675 677 677 677 678 677 677 676 678 677 675 677 677 677 674 676 676 677 675 674 673 672 675 676 677 677 678 678 677 675 676 677 677 675 675 675 675 676 676 677 676 676 675 675 676 679 679 677 678 678 678 676 676 676 676 677 675 677 677 679 677 676 674 675 676 676 678 677 676 675 678 678 678 677 679 678 676 676 678 678 679 678 679 679 679 681 679 680 681 692 704 713 715 715 715 716 715 716 716 715 714 713 713 713 713 714 714 714 713 712 711 711 711 713 712 712 712 712 712 712 714 713 712 711 711 712 712 713 712 710 709 710 711 711 711 710 711
    705 706 706 708 707 706 707 708 709 708 707 708 708 707 707 707 708 709 709 709 709 708 708 708 709 709 709 709 709 710 710 710 708 709 710 711 711 711 711 709 709 710 712 712 713 712 711 711 712 712 712 712 712 712 714 717 724 736 722 692 680 677 678 677 677 674 673 673 674 674 673 672 672 673 675 676 676 676 676 676 675 674 675 675 677 674 674 674 677 677 677 677 678 678 679 679 680 679 678 678 679 680 679 678 678 677 676 675 676 677 678 679 679 678 679 678 678 677 679 678 678 677 677 676 679 679 679 678 679 679 678 677 678 682 684 681 680 678 680 678 679 678 678 679 679 679 678 679 677 677 676 677 678 679 680 679 679 678 680 679 679 679 680 680 679 679 681 681 681 680 682 682 681 681 681 683 687 699 710 714 715 715 716 715 716 715 716 714 714 713 713 712 713 714 715 715 713 711 710 711 712 712 711 711 711 711 711 711 712 711 711 710 710 710 712 713 713 711 710 710 711 711 711 710 710
    706 705 706 707 707 708 708 709 708 708 707 708 707 708 708 709 709 710 710 710 708 707 707 708 708 708 708 709 709 710 711 710 709 710 710 711 711 712 711 711 711 711 712 713 714 713 712 712 713 713 713 712 713 713 714 717 721 732 730 701 686 681 680 680 680 680 678 678 677 678 677 676 676 677 678 680 680 680 681 682 681 680 680 681 681 679 679 679 680 680 682 682 682 681 682 682 682 683 683 684 683 683 684 683 684 682 682 680 681 681 682 683 683 682 682 681 682 681 682 682 682 681 680 681 683 686 686 684 683 684 683 683 684 687 687 684 682 682 684 684 683 682 681 684 684 685 683 683 681 681 681 682 683 684 686 685 684 683 683 683 684 685 686 685 683 683 683 685 686 688 688 686 686 687 687 689 696 707 715 716 716 715 716 715 715 715 716 715 716 714 714 712 711 713 714 715 712 711 710 712 712 712 710 711 710 711 711 711 711 710 710 711 710 710 710 711 711 711 710 710 711 711 710 710 710
    706 706 706 706 707 707 707 708 708 708 708 709 709 709 709 709 709 709 709 708 708 707 707 708 708 708 709 709 710 709 709 709 709 709 709 709 711 711 711 710 711 711 712 713 714 713 712 711 712 712 713 713 713 712 713 715 719 727 732 712 693 686 684 683 683 684 683 682 681 683 682 681 679 680 681 684 684 683 683 683 683 683 683 684 684 684 684 683 683 683 684 683 682 682 684 684 685 686 687 687 686 686 688 686 686 685 687 684 684 685 686 686 687 685 685 683 685 684 684 684 685 684 685 686 689 690 689 688 687 689 689 688 687 687 688 687 687 685 687 688 688 687 686 688 687 688 686 685 685 687 688 689 689 691 691 690 689 687 687 687 688 691 691 691 689 689 689 689 690 690 693 691 692 692 695 697 704 711 716 716 716 714 715 715 715 715 716 715 715 713 712 711 711 713 714 714 712 711 712 713 712 710 709 709 710 710 711 710 710 710 711 711 710 709 710 710 710 711 711 711 711 711 711 710 710
    707 707 707 706 707 707 707 707 707 707 708 708 708 709 710 711 710 709 709 709 708 708 708 709 709 708 708 708 709 708 708 709 709 709 709 710 710 711 710 710 710 712 712 713 713 712 711 711 712 712 713 713 713 713 714 715 717 723 732 721 699 692 690 688 687 688 688 689 686 688 686 688 687 688 688 688 689 688 689 687 687 688 689 690 690 691 691 690 688 688 687 688 687 688 687 688 688 692 691 690 688 690 691 691 692 692 692 689 687 688 690 692 692 690 689 689 690 690 689 690 691 690 691 692 694 694 693 693 692 693 693 692 691 690 690 690 690 691 692 694 692 691 691 692 692 692 692 692 693 695 695 695 694 695 695 695 694 693 692 694 694 696 696 696 693 694 693 693 694 695 697 696 698 699 701 704 709 714 716 716 715 715 715 714 715 715 716 716 716 714 713 712 711 712 713 713 712 712 712 712 711 710 709 710 710 711 711 710 710 711 711 712 710 710 710 710 710 710 711 711 711 712 711 710 710
    707 707 707 706 706 706 707 707 707 707 708 708 709 709 710 710 708 708 708 709 709 708 708 709 709 708 708 707 708 708 708 709 709 710 709 709 710 710 710 710 710 711 712 713 712 711 710 710 711 711 712 712 712 712 713 713 715 717 726 724 707 697 694 692 690 691 692 694 693 694 692 693 693 692 692 691 692 690 690 688 689 690 691 691 692 692 692 691 691 691 690 691 690 692 691 693 693 696 694 692 691 692 693 694 694 694 694 693 692 692 694 695 695 693 693 694 694 694 694 694 695 693 694 694 696 694 695 695 695 695 695 694 693 692 693 693 693 693 694 696 695 695 696 695 694 694 695 695 696 698 697 697 697 698 697 697 697 697 698 697 697 697 698 700 699 698 698 697 697 697 698 699 700 701 704 707 712 714 716 716 715 716 716 714 714 713 715 714 715 713 712 711 712 713 714 712 710 710 711 711 710 709 709 710 711 711 711 709 710 710 711 712 711 711 710 710 711 711 711 710 709 710 710 709 709
    706 708 707 706 707 706 706 706 707 708 708 708 707 709 709 710 708 709 708 710 709 709 708 708 708 707 707 707 709 710 710 710 710 710 710 710 711 711 711 711 711 711 711 711 712 711 710 710 711 711 712 712 711 713 714 715 716 717 723 724 713 701 697 695 694 695 695 698 696 697 696 697 697 696 696 695 695 694 695 694 693 693 695 695 695 696 696 695 695 694 695 695 695 697 696 698 697 700 698 697 696 697 698 698 698 698 700 699 698 697 698 700 699 697 696 696 697 697 698 698 697 696 697 698 699 698 697 697 698 698 697 697 697 699 698 697 696 697 698 699 699 699 699 699 699 699 699 700 701 701 699 699 700 701 700 701 702 702 702 701 700 701 701 702 700 700 700 702 701 702 701 703 704 705 706 710 714 716 717 717 716 716 714 714 713 713 714 713 715 714 714 713 713 714 713 713 711 711 710 711 710 711 711 712 712 712 711 709 710 711 711 711 710 710 710 710 710 711 711 711 710 711 710 710 710
    706 707 706 706 707 706 706 707 708 709 709 709 707 708 708 708 707 707 708 709 709 708 707 706 707 707 707 706 708 709 709 710 710 710 709 709 710 711 711 711 711 710 711 712 713 712 711 711 711 712 713 713 711 711 714 716 717 715 718 722 718 705 699 697 697 697 697 697 699 699 698 698 698 697 697 697 698 698 699 698 697 696 697 697 697 698 698 697 698 698 699 699 699 699 700 701 702 702 702 701 700 700 700 699 700 701 703 703 703 701 700 700 701 701 700 699 700 699 700 699 699 698 700 701 703 701 700 699 700 702 702 702 702 702 701 699 699 700 701 700 700 702 703 702 702 702 702 703 703 703 701 701 702 702 703 704 707 707 707 705 703 703 704 705 705 704 704 706 705 705 704 706 707 707 709 711 716 716 717 717 716 715 713 713 713 713 714 713 713 712 713 713 713 713 713 713 711 710 710 710 710 710 711 712 712 712 711 710 711 711 712 711 709 709 710 710 711 711 710 710 710 710 711 710 709
    707 707 706 707 706 707 707 707 707 707 707 708 707 708 707 707 707 707 707 708 709 709 707 706 707 707 706 706 708 709 709 711 712 712 711 711 711 712 712 713 712 712 712 712 713 712 711 710 711 712 714 714 712 713 713 717 717 717 717 722 720 710 701 699 699 699 700 700 699 700 700 700 700 700 699 700 701 702 702 701 700 699 699 699 700 701 701 701 701 701 702 701 702 702 703 703 705 705 704 703 703 703 703 702 703 703 704 705 704 703 702 703 704 704 703 701 701 702 702 702 701 703 704 705 705 705 703 702 703 704 704 705 705 704 703 702 703 703 703 703 704 705 707 707 707 706 705 707 706 706 705 704 704 704 706 709 711 711 708 706 705 706 707 707 706 706 707 709 708 708 706 708 709 710 711 712 715 716 716 716 714 713 711 713 712 713 713 713 713 714 715 715 714 714 713 714 713 712 711 710 710 711 712 712 712 712 711 712 711 712 711 711 709 709 709 710 710 710 709 710 710 711 711 711 711
    707 706 705 706 705 707 706 707 706 707 707 708 708 707 707 707 708 707 708 708 709 709 708 708 709 708 707 707 708 709 709 710 711 711 711 709 710 710 711 711 711 710 710 710 713 712 712 710 712 712 714 713 712 711 712 714 715 715 715 719 722 715 705 701 701 702 702 703 702 702 701 701 702 701 702 701 702 702 702 702 703 702 703 701 702 702 702 701 702 704 705 704 704 704 706 705 708 707 707 705 705 705 705 705 705 704 705 704 705 704 705 704 706 705 705 705 706 707 705 705 704 706 706 707 707 707 706 705 705 706 707 708 709 707 706 705 706 706 705 704 705 706 708 710 708 707 707 709 710 709 709 705 705 705 708 710 712 712 710 709 708 708 710 710 711 711 711 710 710 709 708 709 710 710 712 713 715 715 715 714 714 713 713 713 712 713 713 714 714 713 714 714 713 712 711 712 712 712 711 710 710 711 711 712 712 711 710 710 711 712 711 710 710 710 711 711 711 710 709 709 709 710 711 710 710
    707 706 705 706 706 708 707 708 706 707 707 708 708 709 708 708 708 708 707 708 708 708 708 708 709 709 708 710 710 711 710 710 710 712 711 710 709 709 709 710 710 710 709 710 711 711 710 710 711 711 712 713 713 712 712 712 712 713 714 718 721 720 712 706 705 705 706 706 705 705 704 706 706 705 705 705 705 705 704 704 704 705 705 704 705 704 704 702 703 705 706 707 707 708 708 708 708 709 709 708 707 708 709 709 708 705 704 704 705 707 708 708 708 707 707 708 708 710 709 709 708 710 710 710 708 708 708 709 708 708 708 709 709 708 710 707 709 708 709 709 709 710 710 712 711 710 710 711 713 713 712 709 708 708 710 712 713 713 712 712 710 712 713 713 713 712 711 710 709 710 710 712 711 712 714 714 713 713 713 713 714 713 713 712 712 712 712 714 714 715 714 715 714 712 711 711 712 713 712 712 711 711 711 711 712 711 711 711 711 712 711 710 710 710 710 710 710 709 711 711 711 711 711 711 712
    705 705 705 706 706 707 707 707 707 708 708 708 708 708 709 708 708 708 708 708 707 706 707 707 707 708 709 710 709 709 707 707 707 709 709 708 707 707 708 709 709 708 707 708 710 711 711 710 711 710 712 712 712 711 711 711 712 712 713 714 718 720 719 712 710 709 709 709 709 709 707 708 708 709 708 708 708 708 708 708 707 708 708 708 709 708 707 705 706 707 708 709 709 710 711 710 710 710 711 710 710 710 711 710 709 707 707 708 709 710 709 709 708 709 709 710 710 711 713 712 710 710 712 713 712 712 712 712 712 711 711 711 712 712 714 712 714 713 714 713 712 712 712 713 711 711 712 713 715 715 714 712 711 711 712 714 714 716 714 714 712 713 714 714 715 714 714 712 711 711 712 713 713 712 714 714 714 712 713 712 713 713 714 712 711 711 712 713 713 713 713 712 711 710 709 710 711 712 711 711 710 710 710 711 711 710 710 710 711 711 711 711 710 709 709 709 709 709 710 711 711 711 712 711 712
    705 705 705 707 706 707 707 708 708 709 708 708 708 708 708 707 706 707 706 706 706 706 707 706 706 708 708 709 708 708 707 707 708 709 709 708 707 708 710 711 711 710 709 709 710 712 712 712 711 711 712 713 712 711 711 711 712 712 713 714 716 720 721 717 713 711 712 712 713 713 712 712 712 713 711 712 712 712 711 710 710 711 710 712 712 712 709 709 709 710 710 711 712 712 711 711 711 712 712 710 711 711 712 711 710 709 709 711 712 713 712 712 712 712 711 711 712 713 715 715 713 714 714 715 714 714 714 715 715 715 714 714 714 715 716 716 716 714 715 716 715 715 715 716 715 715 715 716 715 715 713 713 712 713 713 713 714 716 716 716 714 714 714 714 715 714 714 714 713 713 713 715 714 713 714 714 714 713 713 712 712 713 714 713 712 712 711 712 712 714 713 713 712 710 709 710 710 711 711 712 711 710 709 710 711 712 712 712 711 711 711 711 711 710 709 709 709 710 710 711 711 711 711 711 711
    706 706 706 705 705 705 706 708 708 708 708 708 709 708 709 707 706 707 706 706 706 707 707 707 706 707 707 708 707 707 707 706 707 707 709 708 708 709 711 711 711 710 709 708 709 710 712 710 710 709 711 712 710 709 710 710 712 712 713 713 715 717 718 715 712 712 713 714 716 715 714 713 712 713 713 715 715 714 714 713 713 714 714 715 714 713 712 711 712 712 712 712 712 712 713 713 714 713 713 712 713 712 712 712 712 712 713 714 716 715 715 713 715 714 714 714 715 715 716 716 715 715 715 716 716 716 717 718 719 718 717 717 716 717 718 718 718 716 717 716 715 716 717 717 715 715 716 717 716 714 714 713 714 714 715 715 715 715 717 716 716 714 714 716 716 715 716 717 716 715 714 715 715 714 714 714 714 714 714 712 712 712 714 714 713 712 712 712 713 714 713 713 711 710 709 710 710 711 710 710 710 710 710 710 711 711 710 710 710 710 710 710 711 709 710 710 710 711 710 710 710 710 711 710 710
    706 706 705 706 705 706 707 708 708 707 707 707 708 709 710 709 707 707 706 705 705 706 706 707 706 707 706 707 707 708 708 708 707 707 708 708 709 710 711 711 711 711 711 709 708 709 710 710 709 709 710 711 711 710 710 709 710 711 713 714 714 715 715 715 711 711 712 713 714 714 714 715 713 714 714 716 716 716 716 715 715 716 716 716 715 714 712 713 713 714 713 712 712 714 714 714 715 715 716 714 714 714 714 714 715 715 717 717 718 716 717 716 718 716 717 716 718 717 717 716 716 718 716 716 714 715 717 719 720 721 720 720 717 718 718 719 717 717 717 717 718 720 720 719 717 716 716 719 717 716 716 717 716 715 715 714 714 714 718 719 718 715 716 717 717 716 715 717 717 716 715 714 714 714 714 714 713 714 714 713 713 712 713 713 714 713 712 712 713 713 712 712 711 711 709 709 709 711 710 711 710 711 710 710 711 712 712 712 711 711 710 709 710 709 710 710 711 710 710 709 709 710 710 710 709
    706 706 705 706 706 707 706 707 707 707 707 706 707 707 709 708 707 706 706 705 705 706 707 706 706 706 706 707 707 707 708 707 707 706 707 709 709 710 709 710 710 710 709 708 707 708 710 710 709 708 709 711 710 709 708 708 710 711 713 714 713 713 714 714 712 712 712 712 713 714 715 714 713 713 714 715 715 715 715 716 716 716 717 717 715 713 713 714 715 715 714 713 714 715 715 714 715 716 717 716 716 715 716 716 717 717 718 719 720 717 718 716 718 717 718 719 719 718 718 718 718 718 717 717 717 718 718 719 719 720 721 719 718 717 718 718 718 718 717 717 717 718 719 718 716 715 715 716 715 715 715 716 715 713 714 713 714 714 717 716 714 711 713 714 714 712 712 712 713 712 712 712 714 713 713 712 713 712 713 713 713 711 711 711 713 712 711 711 712 712 711 710 711 711 710 710 710 710 709 710 711 712 712 711 711 710 711 711 711 710 710 709 710 709 710 709 710 709 710 709 708 709 710 710 710
    705 705 705 707 707 707 706 707 707 707 706 706 706 708 708 708 707 707 706 706 706 706 707 707 707 706 708 708 708 708 708 709 708 708 707 708 708 710 710 709 709 710 709 709 709 709 710 710 710 710 711 712 711 710 709 710 710 711 712 713 712 713 713 714 713 712 713 714 714 714 713 714 713 714 714 715 714 715 715 716 715 716 715 716 717 715 714 715 716 716 714 716 717 718 716 715 716 717 718 718 717 715 716 715 715 715 718 718 718 716 716 716 717 716 716 716 716 716 716 716 715 714 714 715 715 716 715 715 714 716 716 716 714 713 712 713 713 714 714 714 713 713 713 712 711 711 711 711 710 711 712 713 713 712 711 710 710 711 712 713 711 710 711 711 711 710 709 709 710 710 711 711 712 711 711 711 712 713 713 712 712 711 711 712 712 712 710 710 711 711 710 709 711 712 711 711 711 711 711 711 711 712 712 712 710 711 711 711 711 710 710 709 709 709 709 709 709 709 709 709 708 708 708 709 709
    704 704 705 707 708 707 705 706 706 707 706 706 707 708 708 707 706 706 706 707 707 707 708 707 708 707 709 708 708 707 708 708 707 707 707 708 708 708 709 709 709 708 708 708 709 709 709 710 709 710 711 712 710 709 710 711 710 710 711 712 711 712 712 713 712 713 715 716 716 714 713 713 713 715 715 715 713 713 713 715 715 715 715 715 716 714 715 716 716 714 711 713 715 715 713 712 712 714 715 715 715 714 713 711 711 712 713 712 711 711 712 712 713 712 711 712 711 712 711 712 712 710 712 714 714 714 713 713 711 711 712 712 712 711 710 710 710 711 711 710 709 708 708 709 710 710 710 710 709 710 710 710 711 710 710 709 710 710 710 710 709 709 710 710 708 707 708 708 709 709 709 709 710 709 710 710 712 712 711 710 710 710 712 713 712 711 710 711 712 711 710 709 711 711 711 711 711 711 711 710 710 712 712 711 709 709 710 710 710 709 709 707 708 708 709 708 709 709 709 709 708 708 708 709 709
    704 704 705 706 706 706 705 706 705 706 705 707 708 707 706 706 706 707 707 708 707 708 708 708 707 708 708 709 709 708 708 708 709 709 708 708 708 708 709 709 709 709 709 709 709 709 709 710 709 709 710 711 710 711 712 713 711 710 710 711 710 712 711 713 711 712 712 713 712 711 710 710 711 713 712 712 710 711 711 711 712 712 711 711 711 710 711 713 714 712 708 709 710 711 710 710 710 711 711 712 712 712 710 709 709 710 711 710 710 709 709 708 709 710 709 709 707 709 709 711 710 710 710 710 710 710 709 710 709 710 710 709 710 710 709 709 708 710 709 709 708 708 709 709 710 710 710 710 709 710 710 710 710 710 710 709 709 708 709 710 709 709 710 709 708 708 710 710 710 710 710 709 710 710 711 711 711 711 711 711 710 710 711 712 711 711 710 711 711 711 711 710 710 711 711 711 711 711 712 711 711 711 711 710 709 709 710 710 710 709 709 708 708 709 710 710 710 710 710 710 710 710 709 709 710
    706 705 705 705 705 706 705 706 705 706 705 707 707 706 706 706 707 707 706 707 707 706 706 707 707 707 707 708 708 706 706 707 708 709 709 708 709 708 709 709 710 709 710 709 710 710 710 709 709 709 710 710 710 710 711 711 711 710 710 710 709 710 710 711 711 711 710 709 709 708 708 708 709 709 709 708 708 708 709 708 709 710 710 709 709 708 709 710 711 710 708 708 708 707 707 707 708 709 709 709 709 710 709 709 708 709 709 708 708 707 708 708 709 709 708 708 707 709 709 710 710 710 710 711 710 711 709 709 709 709 710 708 709 710 710 709 708 709 709 709 709 709 710 711 712 711 710 710 710 710 710 709 709 709 710 709 710 709 709 709 710 709 710 707 708 708 710 709 709 710 710 710 710 710 711 711 711 710 710 710 710 709 710 711 711 710 711 711 711 711 711 709 709 709 710 709 710 710 711 711 711 711 713 711 711 710 710 710 711 710 710 709 710 710 711 709 709 709 709 708 709 710 710 709 710
    707 707 706 705 705 707 706 707 705 706 706 708 707 705 704 706 707 707 706 707 707 707 706 707 708 708 706 707 707 708 708 708 710 710 710 709 709 709 709 709 709 709 709 710 711 710 710 710 709 709 710 710 711 711 711 711 710 710 710 710 709 709 708 709 709 708 707 707 707 708 709 709 708 708 708 708 708 707 707 706 706 707 707 708 708 708 707 709 709 709 708 708 707 707 707 708 709 709 709 708 709 709 708 708 708 709 708 709 709 709 709 709 709 709 709 709 709 710 711 711 711 712 711 711 709 710 708 709 708 708 708 708 708 709 709 708 708 710 710 709 709 710 710 710 711 710 709 709 709 709 709 709 709 709 709 709 709 709 710 710 711 710 710 708 709 709 709 708 709 710 711 710 709 710 711 711 711 710 711 711 710 710 710 712 712 712 711 711 711 712 712 712 711 711 711 711 710 711 711 711 711 711 711 710 710 710 710 710 710 711 710 711 711 711 711 710 710 710 709 709 710 710 709 708 710
    708 707 705 705 705 706 707 707 706 706 706 707 707 707 707 707 708 707 707 707 707 706 706 705 707 707 707 706 706 707 707 707 707 708 708 707 707 706 708 708 708 708 709 710 711 711 709 709 709 709 709 709 710 710 709 709 708 708 708 709 709 708 708 708 709 707 706 706 708 709 709 710 708 708 708 708 708 707 708 707 708 707 708 709 710 710 708 708 708 709 709 710 708 707 706 708 709 710 709 708 709 709 709 709 708 708 708 709 709 709 710 710 711 710 709 709 711 711 711 711 712 711 711 711 711 712 710 710 709 708 708 708 708 709 710 710 709 710 710 709 709 709 709 708 709 710 710 709 709 707 708 708 709 708 709 709 710 710 710 710 710 709 709 708 709 708 708 708 709 711 711 711 710 710 710 709 712 712 711 710 710 711 713 714 713 712 711 712 711 711 711 710 711 711 711 710 710 710 710 709 710 710 710 709 709 709 709 710 711 711 710 710 710 710 710 709 709 709 708 707 708 707 707 706 709
    706 706 705 704 705 706 708 708 707 707 705 706 706 706 707 707 708 707 707 708 707 708 707 706 706 707 707 706 706 708 707 707 707 708 707 707 708 707 706 706 706 707 708 709 710 709 708 708 708 708 707 708 708 709 709 710 709 709 709 709 710 709 708 708 707 707 706 708 709 710 710 710 709 710 709 710 708 707 707 707 708 708 708 710 710 710 708 709 708 711 709 709 707 708 707 709 709 709 709 709 710 711 709 709 708 709 708 708 709 710 711 710 710 710 709 709 709 710 710 711 711 711 711 710 710 711 710 710 709 709 708 708 708 710 710 710 709 709 710 710 710 709 709 708 709 710 710 709 709 708 708 708 709 708 709 709 710 711 711 711 710 709 710 710 711 710 710 710 711 711 712 712 711 710 710 710 710 711 710 710 709 710 711 713 713 713 711 711 710 712 711 712 711 711 710 710 710 710 709 710 711 711 709 709 708 709 708 709 709 711 710 710 710 710 709 709 709 709 708 709 709 708 707 708 709
    706 705 705 705 705 705 707 708 708 707 705 705 706 707 708 707 709 707 708 707 707 706 706 705 705 706 707 707 707 707 706 706 707 708 707 708 708 707 706 705 705 706 707 709 710 709 708 706 707 707 707 708 707 709 709 710 710 710 710 709 710 709 709 709 708 707 707 709 710 710 709 710 710 709 708 708 708 707 707 707 709 709 709 709 709 709 708 708 708 710 710 710 709 708 706 707 708 709 709 710 710 711 710 710 709 710 710 709 709 710 711 710 710 710 709 709 709 709 709 710 710 709 709 708 710 710 710 708 708 708 709 709 709 710 711 710 709 709 711 711 709 709 710 709 710 710 711 710 711 709 710 709 709 708 709 709 711 711 711 710 710 709 710 711 711 709 708 710 711 712 713 712 712 711 710 710 710 711 709 709 710 710 710 710 710 711 710 709 709 710 710 710 710 709 709 709 709 708 708 709 710 711 711 710 710 710 709 709 710 711 710 709 709 710 710 709 709 708 709 709 709 709 709 708 708
    705 705 705 705 705 705 706 707 708 706 705 705 706 707 707 707 708 707 708 708 707 705 706 706 706 707 707 708 707 708 707 708 708 708 706 707 708 708 708 706 705 706 707 708 709 709 708 707 707 708 708 709 707 708 708 709 709 710 710 710 710 709 709 708 707 708 708 710 711 710 709 710 711 710 708 707 708 708 708 707 709 709 709 709 708 709 709 710 710 711 710 709 709 710 708 710 710 711 710 711 711 712 710 710 709 710 709 709 709 710 710 711 710 711 709 709 708 710 709 710 710 710 709 708 708 709 709 709 709 710 711 710 710 711 711 710 708 708 711 711 710 709 710 710 711 710 711 710 711 710 710 710 710 709 709 711 712 712 711 710 710 710 711 711 712 710 709 709 710 711 711 711 710 709 708 708 708 710 709 709 709 708 708 708 708 709 709 709 709 711 711 712 710 710 709 709 709 709 708 709 709 711 711 711 710 710 710 710 710 711 710 710 710 710 709 709 709 709 710 710 710 709 709 710 710
    706 705 705 704 704 704 705 706 706 705 706 706 708 707 707 707 708 708 708 707 706 705 706 706 706 706 707 708 708 708 708 708 708 708 706 706 707 708 708 707 707 706 706 708 709 709 709 707 706 707 709 709 708 708 708 708 709 709 709 708 708 709 708 708 707 707 708 709 710 709 709 711 711 710 708 708 709 709 709 709 709 710 709 709 709 709 709 710 710 709 709 709 709 709 707 709 710 712 712 711 711 710 709 708 708 709 710 709 709 708 709 710 710 711 710 711 709 710 710 711 711 711 711 710 709 709 710 711 712 711 712 710 711 711 712 712 710 709 710 710 710 709 709 711 711 711 712 711 711 710 710 710 711 710 709 709 710 710 710 709 710 709 710 710 710 708 707 708 710 711 711 710 710 709 708 707 708 711 710 710 710 709 709 708 709 708 710 710 710 710 711 711 711 711 710 709 709 709 709 708 708 710 711 711 710 710 710 710 710 710 710 710 709 709 709 710 709 708 709 709 709 708 709 709 709
    705 705 704 704 704 704 705 706 705 706 706 706 707 708 709 708 708 708 707 707 706 706 706 705 706 706 707 707 706 707 708 709 708 707 705 705 706 707 707 707 707 707 706 708 708 708 708 707 707 708 709 710 708 707 707 708 708 709 709 709 707 708 708 709 707 708 709 710 709 708 709 710 711 711 709 709 710 709 709 708 709 709 708 708 709 710 710 711 711 710 708 707 707 708 707 708 710 712 712 711 710 710 710 709 709 710 710 709 710 711 711 711 711 712 710 711 709 710 710 711 711 712 712 712 710 711 710 712 713 714 712 711 710 710 710 711 710 709 709 710 711 711 710 711 711 711 711 711 709 708 709 710 710 710 708 710 710 711 710 710 710 709 709 709 709 709 709 709 710 710 710 709 709 708 708 708 709 710 710 710 710 709 709 710 710 710 711 711 711 710 711 710 711 711 710 709 709 710 710 710 710 710 709 709 710 710 711 712 711 711 710 711 709 709 709 710 709 709 709 710 708 708 708 710 709
    706 706 705 704 705 705 705 705 705 705 707 706 708 708 709 708 708 708 707 706 706 706 706 705 705 705 707 706 705 706 707 708 707 706 706 707 707 708 707 708 708 707 706 706 706 707 707 707 708 708 709 708 707 708 709 710 710 710 710 708 707 709 709 709 708 709 708 708 709 708 709 709 710 709 709 710 711 709 708 707 708 707 708 708 709 708 709 710 710 708 708 707 707 707 707 707 709 711 712 710 710 709 709 709 710 712 711 711 711 711 712 710 710 709 710 711 709 710 711 711 710 709 710 711 711 710 710 710 711 711 710 709 708 708 709 709 710 709 709 709 710 711 711 711 711 712 712 711 709 708 709 709 710 710 709 710 710 711 710 709 709 709 708 709 710 710 709 709 710 710 711 709 708 708 709 709 709 709 709 709 709 710 710 710 710 711 712 711 711 710 710 709 709 710 710 710 710 710 710 711 711 711 709 708 710 709 711 710 710 710 710 710 709 709 709 710 709 709 709 709 708 709 709 708 708
    705 705 704 705 706 706 706 706 705 705 704 704 705 706 708 708 707 707 707 707 706 707 706 706 705 706 706 705 705 706 706 707 705 706 705 707 706 707 707 708 707 706 705 707 707 708 708 707 708 709 709 709 707 708 708 709 709 709 710 709 708 709 709 709 709 709 709 710 710 709 708 708 709 708 709 710 711 710 709 708 708 708 709 708 709 708 709 708 709 707 707 706 708 708 708 708 708 711 711 711 710 710 710 711 711 712 711 710 711 712 712 710 710 709 709 709 708 709 709 710 709 709 709 710 711 711 710 709 709 709 709 709 707 707 707 708 708 708 708 709 710 711 711 711 710 711 710 709 707 708 709 710 710 710 710 711 711 711 710 709 709 708 708 710 710 711 710 710 710 709 710 708 709 709 710 709 710 709 709 709 710 711 710 710 710 711 711 711 710 711 710 709 708 710 709 709 708 709 710 711 711 710 708 708 709 709 710 709 710 710 710 709 708 709 708 709 709 710 709 708 708 709 709 708 708
    705 704 705 706 707 707 707 706 705 705 704 704 704 706 707 706 705 706 706 707 707 707 706 706 706 707 707 706 705 705 705 706 705 706 705 706 706 706 707 708 707 705 705 706 708 708 709 708 708 708 708 708 707 708 708 708 708 708 708 708 708 709 709 709 708 708 708 709 710 709 708 708 709 709 710 711 711 710 709 708 709 708 709 708 710 708 709 708 707 706 707 708 710 710 710 709 708 709 710 710 710 710 710 710 710 710 708 709 709 710 710 709 710 709 709 707 707 708 710 710 710 709 709 709 711 710 711 709 710 708 708 708 708 709 709 710 710 708 708 709 710 710 710 710 711 711 710 708 709 709 711 711 711 712 712 711 710 711 711 709 709 708 710 711 712 712 710 709 708 709 709 709 709 709 710 709 710 709 709 710 710 710 709 708 709 710 710 709 709 709 710 709 709 710 709 708 708 709 710 710 709 709 709 710 710 709 709 707 708 707 708 708 708 709 708 708 708 708 707 706 708 708 709 708 708
    705 704 704 705 706 707 706 706 705 706 704 704 704 705 706 706 705 706 705 706 706 706 705 706 705 706 706 707 706 706 705 706 706 707 706 706 706 706 707 706 705 705 707 708 709 709 708 708 707 708 709 710 709 709 709 709 708 707 707 708 708 708 708 708 708 708 709 709 709 709 708 708 709 711 711 711 710 710 709 709 709 709 709 709 710 710 709 708 707 707 707 708 709 710 709 708 708 708 709 710 709 710 710 709 708 708 707 708 709 711 710 709 710 711 709 707 707 708 709 709 710 711 711 709 710 710 711 710 711 710 710 709 709 708 709 710 709 709 709 709 710 710 711 711 710 710 709 708 709 709 710 711 711 712 711 710 710 711 711 710 709 709 710 710 710 710 709 709 707 709 709 710 711 711 711 710 710 709 709 710 709 709 708 708 709 710 710 710 709 709 710 709 709 709 709 708 707 707 708 709 709 709 709 710 709 710 710 708 708 708 709 709 709 710 709 708 708 708 709 708 709 709 709 709 710
    707 706 707 705 706 706 706 706 705 706 706 706 706 707 706 705 704 704 705 705 705 706 706 705 705 705 707 708 707 706 706 707 707 708 707 706 706 706 707 706 707 707 709 709 709 708 708 708 708 708 709 710 709 709 709 708 708 707 708 708 708 709 708 708 708 709 709 708 708 708 709 709 709 710 709 709 709 709 708 708 708 708 708 709 708 709 709 708 707 707 707 707 708 709 710 709 709 708 709 709 709 709 709 709 709 709 709 710 710 710 710 710 711 710 709 708 709 710 711 710 711 710 710 709 710 709 710 709 711 710 710 709 710 709 710 709 710 710 710 709 710 710 711 710 711 711 711 710 710 710 710 711 713 713 711 710 711 711 710 708 708 710 711 711 710 709 708 708 708 709 709 711 711 711 710 710 710 708 708 709 708 708 708 708 708 709 709 709 709 709 710 710 710 710 710 708 708 706 708 709 710 710 710 710 710 710 711 709 709 708 708 709 709 709 708 707 707 707 708 708 708 706 708 709 710
    706 707 707 704 704 703 703 704 705 706 706 706 706 706 705 706 705 705 704 705 705 706 706 706 706 706 706 708 708 708 707 708 708 709 707 706 706 707 709 709 709 708 710 710 710 708 707 708 709 710 710 710 709 709 709 709 709 708 707 707 707 708 707 708 708 711 709 708 707 708 708 709 709 710 708 708 708 708 708 708 708 709 709 709 708 708 708 708 708 709 708 708 708 709 709 709 709 709 710 709 708 709 709 709 708 708 708 709 709 709 709 710 711 711 710 709 708 709 710 710 710 710 710 710 709 709 710 711 711 711 711 711 710 709 708 708 709 711 711 709 709 709 710 710 710 711 711 711 710 709 709 710 712 711 710 710 711 710 709 707 707 709 710 710 709 708 707 709 709 710 709 710 710 710 710 710 710 709 709 709 708 709 708 710 709 711 710 711 711 711 712 711 711 710 710 708 707 705 707 708 708 709 709 708 708 709 710 710 709 709 709 709 709 708 707 708 708 709 709 709 708 707 708 709 709
    705 706 707 705 704 703 703 703 704 705 706 706 706 706 707 707 706 705 706 707 707 708 707 707 705 705 706 708 708 707 706 707 707 708 707 707 707 707 708 708 709 708 708 708 707 706 707 709 710 709 708 709 709 708 707 706 708 707 707 706 706 709 708 708 708 709 708 708 708 708 708 708 709 708 707 707 707 708 708 708 709 709 709 708 708 708 709 709 708 708 707 707 707 708 709 708 709 709 709 709 709 710 710 710 709 710 710 709 708 707 708 709 710 709 709 708 708 709 711 710 709 709 710 710 710 710 711 711 711 710 709 709 709 709 709 709 710 711 711 709 710 709 709 709 710 711 711 711 711 710 709 710 710 711 710 710 711 710 710 707 707 709 710 711 710 709 708 709 710 711 711 711 711 709 710 710 710 710 710 711 710 710 709 710 709 709 710 710 710 711 712 711 710 709 710 708 708 708 709 708 708 708 709 709 710 710 710 708 709 708 709 708 708 707 707 707 709 708 708 707 707 707 709 708 709
    704 705 706 706 705 703 703 703 704 705 705 705 704 705 706 708 708 708 707 707 707 708 707 707 707 707 708 708 708 707 706 707 707 708 707 707 707 706 706 706 708 707 707 707 707 707 707 709 709 709 707 708 708 708 707 707 707 707 706 705 706 708 708 708 708 709 708 708 709 709 709 708 707 707 708 708 707 709 709 709 709 710 710 709 709 709 709 709 709 709 708 708 708 709 708 707 707 709 708 709 708 711 710 710 708 709 709 709 708 708 708 709 710 711 711 710 709 709 709 709 709 709 709 710 709 709 710 711 711 710 710 710 708 708 709 710 710 710 711 711 710 709 708 709 709 710 710 710 711 711 709 710 709 710 710 711 712 712 711 710 708 710 710 712 710 710 708 710 711 711 710 710 710 708 709 709 709 709 709 709 708 709 709 710 709 709 710 711 711 711 710 709 708 709 709 709 708 708 708 707 707 709 710 709 709 709 709 708 708 709 709 708 708 708 709 709 710 709 709 708 708 709 709 709 708
    705 704 706 706 706 704 704 704 705 705 706 706 705 705 707 708 708 708 707 706 707 708 708 707 706 706 707 707 706 706 705 706 705 707 707 707 707 707 707 707 707 706 707 707 707 708 708 709 709 708 706 706 708 708 707 706 707 707 707 707 707 707 707 707 708 707 708 707 708 708 709 707 706 707 708 709 708 710 710 710 709 710 709 709 709 710 710 708 708 708 707 707 707 709 709 709 709 709 708 708 709 710 710 709 709 709 710 709 708 706 708 709 711 711 710 710 710 710 710 709 709 708 709 708 709 708 709 709 711 710 710 709 708 707 709 710 710 708 709 710 711 709 710 710 710 711 710 711 711 712 711 711 710 710 710 711 712 713 711 710 709 711 711 712 711 711 709 709 710 711 711 711 711 708 708 708 710 709 709 708 707 708 708 709 708 708 709 709 710 708 707 707 707 708 708 708 708 708 709 708 708 710 711 711 710 710 710 709 708 708 708 708 708 709 709 709 709 709 710 709 708 708 708 708 708
    704 704 704 706 705 704 704 704 705 705 705 706 704 705 706 708 707 707 706 705 706 707 707 707 706 708 707 708 706 707 706 708 706 708 707 707 706 706 708 708 707 707 707 708 708 709 708 708 707 707 706 706 706 707 707 708 708 708 707 707 707 707 706 706 708 708 708 708 708 708 707 707 707 708 707 708 708 710 710 710 708 709 708 709 709 710 709 708 709 709 708 708 707 708 708 709 709 709 708 709 708 709 709 708 707 707 709 708 708 708 709 710 710 711 711 711 710 708 708 708 709 709 710 710 710 709 710 710 711 711 711 710 710 709 710 711 709 708 709 710 710 709 710 711 710 711 710 711 711 712 711 711 710 710 709 709 710 712 711 710 708 709 710 710 711 710 709 708 709 709 709 710 709 707 707 707 709 709 709 707 706 707 708 708 707 708 708 709 708 708 707 709 709 709 708 708 708 708 708 708 708 709 711 711 710 711 711 711 709 709 708 709 708 709 708 708 707 708 709 709 708 708 708 708 708
    703 702 704 706 705 704 704 705 705 705 706 706 705 706 706 707 707 706 706 706 706 707 706 706 706 707 707 707 707 707 707 708 707 707 707 706 706 707 708 708 707 707 707 708 709 708 707 706 706 706 706 706 707 707 707 707 707 707 706 706 707 706 707 707 708 707 708 707 707 706 707 707 706 707 706 707 706 708 708 709 707 707 706 708 709 709 708 708 710 710 709 708 707 708 708 708 709 709 709 709 709 708 708 708 707 706 708 708 708 706 708 708 708 708 709 710 709 708 709 710 711 710 711 710 712 711 712 710 711 711 711 711 709 709 711 711 710 708 709 709 710 710 711 711 711 711 711 711 711 711 712 711 711 709 708 707 708 709 709 708 707 708 709 709 710 709 710 709 710 710 710 711 710 709 708 708 709 710 710 708 708 708 709 709 708 708 709 709 709 708 709 710 709 708 709 709 710 709 710 709 708 707 708 709 709 710 710 710 708 708 708 708 708 708 708 708 707 707 708 708 707 707 708 709 709
    703 703 704 706 705 704 704 704 705 705 705 705 705 706 706 706 705 706 705 705 705 706 705 705 705 707 706 707 707 707 707 707 707 708 707 707 706 706 706 707 707 708 707 708 708 708 706 705 705 706 707 707 707 707 708 708 708 707 707 706 706 707 708 708 707 707 707 707 707 707 707 707 707 707 706 707 706 707 707 708 707 707 706 708 708 708 708 708 710 710 709 708 708 707 708 708 709 710 710 711 709 709 709 709 707 707 709 709 709 709 708 708 707 708 708 709 707 706 707 709 711 712 712 711 712 712 712 710 710 711 710 710 709 710 710 710 709 709 708 709 710 711 711 711 710 710 709 708 709 708 709 708 710 709 708 706 707 708 709 708 707 708 709 708 709 708 710 710 710 709 708 709 708 708 707 707 708 709 709 708 708 709 710 709 708 708 710 710 709 710 710 710 709 708 709 710 710 710 709 710 708 708 707 710 710 710 709 709 709 710 709 709 708 708 708 708 707 707 709 708 707 707 708 708 707
    703 703 704 705 705 705 705 705 706 705 705 706 706 706 706 705 705 706 706 705 705 705 705 705 705 705 706 705 705 705 706 707 706 707 707 707 706 706 706 706 706 707 707 707 708 708 707 706 707 708 708 705 707 707 709 708 708 707 707 706 706 706 707 707 706 705 706 707 707 706 707 708 708 708 706 707 706 707 707 708 707 708 707 708 708 708 709 709 710 710 710 709 709 709 711 710 710 710 710 710 708 709 709 709 709 708 710 708 709 708 709 708 708 709 709 709 708 708 709 710 711 711 711 709 711 709 710 708 709 710 709 708 708 709 709 709 709 709 709 710 711 712 710 710 710 709 708 708 709 707 708 707 709 707 708 707 708 708 709 709 709 708 709 708 709 708 709 709 708 709 708 708 707 707 707 707 708 709 709 709 709 710 710 710 710 710 710 710 710 710 710 709 708 708 709 710 710 709 709 709 709 708 708 710 710 710 709 708 709 709 710 709 709 708 710 709 709 708 709 708 706 706 706 707 707
    703 704 704 704 704 705 705 705 705 704 704 705 705 705 705 706 705 705 704 705 704 705 705 706 705 706 706 706 704 705 705 706 705 706 706 707 706 705 706 707 707 707 706 707 707 708 708 707 708 709 708 706 706 708 709 709 708 709 709 709 707 708 706 706 704 706 707 707 707 707 707 708 708 709 707 708 708 709 709 710 709 710 709 709 708 709 709 710 709 710 710 709 708 709 710 710 709 710 709 710 708 709 710 709 710 710 710 709 709 709 708 708 708 709 710 708 707 707 709 710 710 710 710 710 710 709 709 708 709 709 707 707 708 708 709 708 708 710 709 711 711 711 709 710 709 709 707 707 707 708 708 708 708 708 708 708 709 709 709 708 708 709 710 708 709 707 707 706 706 707 707 707 705 706 707 708 709 709 709 708 709 710 710 710 710 710 710 710 710 710 709 708 708 708 709 709 709 709 708 708 708 709 709 711 710 710 709 709 710 710 710 710 709 708 710 709 710 708 708 708 708 707 706 706 706
    703 703 704 704 705 706 706 705 705 704 705 706 706 705 705 706 705 705 705 706 705 705 705 706 706 706 707 706 704 704 704 705 705 706 707 707 706 705 706 707 707 706 706 705 706 706 707 706 707 708 708 707 707 707 708 708 708 708 708 709 708 709 708 707 705 706 708 708 708 707 708 709 708 708 707 708 707 709 709 710 709 709 709 709 708 709 709 709 710 711 710 709 708 708 709 709 708 708 708 709 709 709 709 709 709 709 709 707 708 708 708 707 708 709 711 709 708 707 709 710 710 710 710 710 710 710 709 708 709 709 709 708 709 708 708 708 710 709 709 709 710 709 709 709 709 709 708 708 708 709 710 709 709 709 709 707 707 707 708 707 708 709 712 710 711 709 709 706 706 707 709 708 707 707 707 708 710 711 710 709 710 710 710 710 710 710 709 709 709 709 708 707 707 709 709 709 709 709 708 707 708 708 709 708 709 709 709 709 709 709 709 708 708 707 709 708 709 708 708 708 708 708 707 706 708
    705 705 704 704 704 705 705 705 705 704 704 706 705 705 705 706 706 705 705 704 704 705 705 706 705 706 706 706 706 705 704 704 704 706 707 707 706 705 706 706 707 706 706 705 706 706 706 706 705 707 708 709 708 708 708 708 708 708 708 709 709 710 709 708 708 709 709 707 706 706 708 708 707 708 707 708 707 708 709 710 709 708 708 709 708 708 708 708 708 709 709 708 708 709 708 708 707 708 708 709 709 710 709 709 709 708 708 707 708 708 708 707 708 708 710 710 709 709 709 710 709 710 709 711 710 710 709 710 709 709 708 709 709 707 707 708 709 709 708 709 709 709 707 708 709 709 708 708 708 710 710 711 710 710 709 708 708 709 709 708 708 710 711 711 710 710 708 706 706 708 709 709 708 707 707 708 709 710 710 708 709 708 710 709 709 709 709 708 708 708 708 709 708 708 707 707 707 707 707 707 708 709 708 708 707 708 708 709 709 710 710 709 709 709 709 710 710 709 710 710 710 709 708 707 708
    704 704 704 704 704 704 705 705 705 705 705 706 705 705 705 705 706 705 705 703 703 704 704 704 704 704 705 705 706 705 705 705 705 706 707 707 707 706 707 706 706 705 706 706 707 706 706 705 705 706 707 708 708 708 709 708 708 707 707 707 709 709 709 708 708 708 708 706 706 706 708 708 708 708 708 707 706 708 708 709 707 707 707 708 708 708 708 708 708 708 709 708 709 709 709 708 708 708 709 709 709 709 709 709 709 708 708 708 709 708 709 708 709 708 709 709 710 709 709 707 708 708 709 709 709 709 708 709 707 707 708 710 709 707 707 707 709 709 709 709 710 708 708 707 709 710 710 710 709 709 710 710 709 709 709 709 709 709 709 709 709 709 710 710 710 709 709 707 707 708 710 710 709 708 708 709 710 709 709 708 709 710 710 709 709 707 707 705 706 707 708 709 709 708 707 706 707 707 709 709 709 710 710 709 708 708 708 708 709 710 710 709 708 708 708 709 710 710 710 709 709 709 709 708 709
    704 704 703 703 702 703 704 705 704 704 705 706 705 704 705 706 706 704 703 702 704 704 705 705 705 705 706 706 707 706 706 706 706 706 706 706 706 706 706 706 706 706 706 708 708 707 706 706 705 706 706 708 709 709 708 707 707 707 707 708 709 709 707 707 708 708 707 706 706 707 708 707 708 709 709 708 707 708 708 709 707 707 706 708 707 708 708 709 709 708 708 708 708 708 710 709 708 708 708 709 709 708 709 710 709 709 708 710 710 709 708 708 709 708 708 709 710 710 711 709 709 708 709 710 709 709 708 709 707 707 706 709 707 706 705 706 707 709 710 710 710 709 707 707 708 711 711 710 709 709 710 710 710 710 710 711 710 710 708 709 708 708 708 709 708 708 707 707 707 709 709 710 708 709 709 710 709 708 708 708 709 710 710 709 709 708 708 707 707 708 709 711 710 709 707 707 708 708 709 708 709 711 711 711 709 708 706 708 709 710 710 709 709 708 708 708 710 710 709 708 708 708 708 708 708
    702 703 702 701 702 703 704 705 705 705 706 706 706 706 706 707 707 704 704 703 705 706 706 705 706 706 707 707 706 705 705 705 706 705 705 704 706 707 707 706 705 705 706 707 708 707 706 706 706 706 706 707 708 708 707 706 707 706 707 707 708 708 707 706 707 707 706 706 707 708 708 707 707 708 709 708 708 708 709 709 707 707 707 707 707 707 707 709 710 709 709 707 708 708 709 709 709 707 708 707 708 707 709 709 709 709 709 710 709 710 708 709 709 708 708 707 710 710 710 709 708 708 709 709 709 708 707 708 708 708 707 708 707 707 706 706 706 708 709 709 709 709 708 708 708 710 710 709 708 707 709 709 712 711 711 710 709 708 708 709 708 709 708 708 708 708 709 709 709 710 710 710 709 710 709 709 708 709 708 709 709 710 710 709 709 708 709 708 708 708 708 710 711 710 709 708 710 710 710 708 708 709 710 711 709 708 706 707 708 709 709 708 708 707 707 706 708 708 708 707 708 707 707 707 707
    703 704 702 702 702 703 704 705 706 706 705 706 705 706 707 708 707 705 704 705 706 707 707 707 706 706 707 707 705 703 704 705 706 706 705 704 705 706 706 705 705 705 705 706 706 706 705 706 707 708 707 707 707 708 707 707 707 707 707 708 708 707 707 707 707 707 706 706 706 707 706 706 706 708 707 707 707 709 709 709 708 709 709 708 707 706 706 708 709 709 708 707 707 708 709 709 708 707 707 708 708 708 709 709 709 709 708 709 708 709 708 709 708 708 708 708 710 711 710 710 709 709 709 709 709 708 708 708 708 709 707 708 707 708 707 706 706 707 709 709 709 709 708 708 708 709 709 709 708 707 707 709 712 713 711 710 709 709 709 711 710 710 709 708 708 708 709 709 709 710 709 710 710 711 708 707 706 708 709 709 708 708 708 707 707 708 709 710 709 709 708 710 710 711 709 708 708 708 708 707 706 708 709 710 709 708 707 708 708 709 708 708 708 709 708 706 707 707 708 707 707 707 707 708 708
    703 704 703 703 702 703 704 706 707 705 705 706 705 706 706 708 707 706 705 705 706 706 706 706 705 705 706 705 704 703 704 705 705 705 705 705 705 706 706 705 704 705 705 706 706 706 707 708 708 709 708 706 707 708 708 707 706 706 707 706 706 707 707 707 707 706 706 705 705 705 705 705 706 707 706 707 707 709 709 708 708 708 708 708 707 707 706 706 708 708 708 707 708 707 708 707 707 707 707 708 708 707 708 708 709 708 707 708 707 708 706 707 707 708 708 708 709 709 709 708 709 709 709 708 709 707 707 707 708 707 706 707 708 708 708 706 707 707 709 709 709 709 710 710 709 709 709 709 709 708 708 709 710 711 710 709 709 710 711 711 712 710 709 707 708 710 710 710 709 709 709 709 710 711 709 708 708 709 709 708 708 708 708 707 707 707 708 709 709 708 709 708 709 709 708 707 707 707 708 707 707 706 708 708 709 709 708 708 707 708 708 708 709 709 709 708 707 707 707 707 708 708 708 708 707
    703 704 704 704 703 703 704 705 706 704 703 704 704 704 704 706 705 705 705 706 705 706 705 705 704 704 704 705 705 705 706 705 704 705 705 706 706 706 706 705 705 705 706 706 706 706 706 708 708 708 706 705 706 708 707 706 706 706 706 707 706 707 707 707 706 706 706 706 705 705 705 706 706 708 706 707 707 709 708 707 706 707 708 709 708 708 706 706 708 709 709 708 707 707 707 708 708 708 708 709 709 707 707 707 707 706 705 707 707 707 705 706 707 708 708 708 709 710 709 709 710 710 710 710 709 708 707 708 708 707 707 708 709 709 708 707 708 708 710 710 710 709 710 710 710 709 709 710 710 710 709 708 708 709 708 708 708 709 710 710 710 709 708 707 708 710 710 709 708 709 708 708 709 710 710 709 708 708 708 707 708 708 708 708 707 708 708 708 708 708 709 708 708 708 707 707 707 707 707 708 708 708 708 708 709 709 708 709 708 709 708 708 707 708 707 707 707 707 706 706 706 707 708 707 707
    703 704 705 704 704 703 703 704 705 703 704 704 704 704 704 705 704 705 705 705 705 706 705 704 704 704 704 704 706 707 706 705 704 704 705 705 706 706 706 704 704 705 706 706 706 706 706 707 708 707 705 704 706 708 707 706 706 705 705 706 707 708 708 707 706 706 706 706 705 705 705 705 707 707 707 707 707 707 706 706 706 707 707 708 708 708 707 706 707 709 710 707 708 707 707 706 708 708 708 707 707 706 707 706 707 707 706 707 707 707 706 708 709 709 709 709 710 710 710 710 710 710 710 710 708 707 707 708 709 707 706 707 708 707 708 708 709 709 710 710 710 709 710 708 707 706 708 709 710 710 710 708 708 707 707 707 707 708 708 708 709 709 709 707 708 710 709 709 708 709 708 708 709 709 710 709 709 708 708 707 707 708 709 709 708 708 708 707 708 707 709 708 708 706 707 707 708 707 708 708 709 708 708 708 709 708 708 708 708 708 707 707 707 708 708 708 707 707 706 705 706 707 708 707 705
    703 704 705 703 704 703 704 704 704 704 703 703 703 703 704 704 704 704 705 705 705 705 705 704 704 703 704 705 705 706 706 705 704 704 704 704 705 705 705 705 705 706 706 706 705 705 705 706 706 706 704 704 705 706 706 706 706 705 705 707 706 707 707 707 707 707 707 707 707 707 707 706 707 708 708 707 705 706 706 707 706 707 707 707 707 707 707 707 707 709 709 708 708 707 708 708 708 709 708 709 708 708 708 708 708 707 707 708 708 708 708 709 710 710 709 709 709 710 711 711 709 709 709 711 709 708 707 708 708 707 707 708 708 707 708 709 710 709 710 711 710 709 709 708 706 706 707 708 709 709 709 708 708 709 709 708 707 708 707 707 709 710 710 709 709 710 710 710 709 708 708 708 708 708 709 709 707 707 707 707 707 708 709 709 708 708 708 708 708 707 708 709 708 706 707 707 708 707 708 708 708 707 708 709 709 708 708 708 708 708 708 708 707 707 707 707 706 706 706 706 706 707 707 706 706
    703 704 705 704 704 703 703 703 704 704 704 703 703 703 703 703 704 704 705 705 705 705 706 705 705 705 705 705 704 705 704 705 705 705 704 705 704 704 703 704 705 706 706 706 706 705 705 706 706 706 705 704 705 706 706 705 705 705 705 706 707 707 707 706 707 706 707 707 707 706 706 705 707 707 707 705 705 706 707 708 707 707 707 706 707 708 709 707 706 707 709 708 708 707 708 707 707 708 707 708 708 709 709 708 708 709 709 708 708 708 708 709 709 709 709 708 708 710 711 711 710 709 709 710 709 707 707 706 708 707 708 707 708 707 708 709 709 708 709 710 709 708 707 707 706 706 706 708 708 709 708 709 709 709 709 708 707 708 707 707 709 710 711 709 709 709 710 709 709 708 709 708 708 707 708 708 707 707 707 707 708 709 710 710 709 709 708 709 708 709 709 709 708 707 707 707 708 706 708 708 708 707 708 708 708 707 708 706 706 705 707 707 708 708 709 708 707 706 706 707 707 707 706 706 706
    702 704 705 705 705 703 703 703 704 703 703 704 704 704 704 704 704 705 705 705 705 704 705 704 705 705 705 705 703 704 705 705 704 704 704 706 705 705 704 705 706 706 706 706 706 706 707 707 706 706 704 704 704 706 706 705 705 705 706 707 707 707 707 707 706 707 708 708 707 707 707 708 708 708 707 707 706 707 708 708 708 708 707 706 707 708 709 708 707 706 707 707 708 707 708 707 707 707 708 709 709 709 708 708 708 708 708 709 708 707 708 708 709 709 708 708 708 710 710 710 710 710 710 710 710 708 707 707 708 709 709 708 708 708 708 708 709 709 709 709 708 709 707 708 707 708 708 709 708 708 708 708 708 709 708 708 707 707 707 707 708 709 710 709 708 708 710 710 709 708 709 708 707 706 706 707 707 706 706 708 708 708 708 709 709 709 708 708 708 708 708 708 708 707 707 706 707 706 707 707 707 707 707 707 706 707 707 707 707 706 707 707 707 707 707 708 707 707 707 707 707 706 705 706 706
    702 703 705 706 706 704 704 703 703 703 703 703 704 705 705 705 705 705 704 704 0 705 705 704 705 704 704 705 705 705 705 704 704 704 705 706 706 705 705 706 706 705 706 705 706 705 706 706 706 706 705 704 705 707 707 706 706 705 706 706 708 708 709 707 707 706 708 708 708 707 706 707 707 707 706 706 707 708 708 709 709 708 707 706 707 708 709 708 707 706 707 707 707 706 706 707 708 708 707 707 708 707 707 707 707 708 707 707 707 706 706 706 707 707 708 708 710 711 710 710 711 710 709 709 709 709 709 709 710 710 710 708 708 708 709 708 708 708 708 709 709 709 706 706 707 708 709 709 708 708 708 708 708 707 708 707 707 707 708 708 708 708 709 708 708 708 709 708 708 708 709 708 707 705 707 708 707 707 706 709 709 709 708 709 709 707 707 707 707 708 707 707 706 707 707 706 707 707 708 708 708 707 707 706 706 707 707 707 706 705 706 706 707 707 708 708 708 707 707 706 706 707 708 708 708
    703 703 705 706 706 705 705 704 704 703 704 704 705 705 705 705 705 705 704 704 704 704 704 704 704 704 704 705 705 705 705 705 705 705 705 706 706 706 706 706 706 706 706 706 706 705 705 706 706 705 705 705 706 707 707 707 706 705 705 705 707 708 707 706 706 706 707 708 708 708 707 708 706 706 705 707 707 707 708 709 709 707 706 705 707 707 707 707 707 705 706 705 706 705 706 707 707 707 706 706 706 706 706 707 707 708 707 708 708 708 707 708 708 708 708 709 710 709 708 709 710 709 708 708 709 710 710 710 710 710 709 707 708 707 707 707 708 709 708 709 709 709 708 708 708 709 709 709 708 708 708 708 708 708 708 708 708 707 708 707 708 708 708 708 708 708 708 708 707 707 708 707 707 707 708 709 708 707 707 709 709 708 707 708 708 707 707 707 707 707 707 707 706 706 705 706 706 706 708 707 708 706 707 707 706 707 707 709 708 708 708 707 706 706 708 708 707 707 707 707 707 707 708 708 708</data></data>
</opencv_storage>
