<?xml version="1.0"?>
<opencv_storage>
<data type_id="opencv-matrix">
  <rows>106</rows>
  <cols>225</cols>
  <dt>w</dt>
  <data>
    709 709 709 709 709 709 709 709 709 710 711 711 710 709 710 711 711 711 710 709 709 709 710 710 711 711 711 710 710 710 711 711 712 712 712 711 711 711 712 712 714 712 712 710 711 712 713 713 712 711 711 711 712 711 711 711 711 711 712 712 712 712 712 712 711 709 710 711 712 713 713 711 710 711 711 712 713 712 712 709 710 710 712 711 712 711 712 711 710 711 712 713 713 713 713 714 714 713 712 712 713 714 713 713 711 711 711 713 714 713 713 713 714 712 713 713 713 712 712 713 713 714 713 713 713 712 713 711 713 712 713 712 714 713 714 712 711 711 712 713 714 714 714 714 716 715 714 712 713 714 714 713 715 714 713 712 713 713 714 714 714 715 714 713 714 714 715 714 713 714 715 716 716 714 714 713 713 712 711 712 713 713 713 713 711 711 711 712 712 713 713 712 712 711 712 712 713 713 712 712 712 712 712 712 713 713 713 713 714 713 712 711 712 713 713 713 712 711 711 712 713 714 713 713 712
    709 710 709 710 709 710 710 710 710 711 711 710 709 709 709 710 710 710 710 710 709 709 711 712 712 712 712 711 710 711 711 711 711 712 712 710 710 711 712 713 714 713 712 711 710 712 712 713 711 711 710 710 712 713 713 713 713 712 713 712 712 711 711 711 710 710 711 712 712 712 712 711 710 710 711 710 711 711 711 710 711 712 712 711 712 712 713 712 712 712 711 711 711 712 713 713 713 713 712 712 711 713 713 714 712 712 711 713 714 714 713 713 713 713 712 712 712 711 711 712 713 715 713 713 713 712 714 714 715 715 714 714 715 714 714 712 712 710 711 712 713 713 714 715 717 716 715 713 714 713 714 713 714 714 713 712 712 712 712 712 712 713 713 712 712 712 712 712 712 712 713 714 714 713 713 713 713 713 712 714 713 714 713 714 712 712 711 713 713 713 712 713 712 712 712 713 713 712 712 713 712 712 711 711 712 713 713 713 712 713 711 712 712 713 712 713 712 712 711 713 713 714 714 713 713
    710 710 709 709 709 709 710 710 711 710 710 709 710 709 709 710 711 711 711 710 710 710 711 711 712 711 712 711 711 711 711 711 711 712 712 710 709 710 711 711 712 712 711 710 709 711 711 712 711 711 710 710 711 712 713 713 713 712 712 710 710 710 710 711 711 711 712 713 711 711 711 711 710 710 710 710 710 710 710 711 712 712 713 712 712 711 713 712 713 712 713 712 712 712 712 712 711 712 713 713 712 713 713 714 713 712 712 714 716 716 714 713 713 714 713 712 712 712 712 712 713 715 714 713 712 713 712 712 713 713 713 713 714 714 715 714 714 712 713 714 715 715 716 715 717 714 715 713 714 713 714 713 712 712 712 710 711 711 712 712 712 713 713 712 712 711 713 712 713 713 714 715 714 714 714 714 714 713 714 714 714 714 714 714 714 714 714 713 713 712 712 712 712 712 713 714 713 712 712 714 713 713 713 713 713 713 713 713 713 712 710 711 712 713 712 712 712 712 712 714 713 713 712 711 712
    710 710 709 709 709 710 709 710 710 709 709 709 709 709 710 710 711 711 710 710 710 711 711 711 711 710 711 711 710 711 711 711 711 712 712 710 709 710 710 711 711 711 711 711 711 711 710 710 709 710 710 709 709 710 712 712 713 713 712 711 710 710 710 712 713 713 713 712 711 711 711 711 711 711 711 710 711 711 711 712 712 713 713 712 712 713 713 713 714 713 713 712 713 713 713 713 712 713 713 714 714 714 714 715 714 713 713 713 714 714 712 712 712 714 713 712 712 712 712 711 711 714 714 713 712 712 712 713 714 714 713 712 713 714 714 712 713 711 711 712 714 712 713 713 715 714 715 714 714 713 713 712 712 712 712 712 711 713 713 713 712 713 713 712 712 712 713 712 712 713 712 713 712 713 713 713 714 713 714 714 714 714 713 713 714 713 714 713 713 712 711 712 712 712 712 712 712 711 712 713 712 713 713 713 712 712 713 714 712 712 710 711 711 712 711 711 712 713 713 714 713 712 711 712 712
    710 710 709 709 710 709 709 709 710 708 708 709 709 710 711 711 711 711 710 710 711 711 711 710 711 710 711 710 710 711 711 711 711 712 712 711 710 711 711 712 711 710 710 711 712 711 709 709 709 710 710 709 709 708 711 710 711 711 711 710 710 710 711 711 712 712 711 710 711 711 712 711 711 711 711 711 713 713 713 713 714 714 714 713 714 715 714 713 713 712 714 714 716 715 713 713 713 713 713 713 714 714 714 714 714 714 712 713 713 713 713 714 715 714 713 713 713 713 711 709 711 711 713 712 712 712 712 713 713 713 711 711 712 713 713 712 714 712 713 712 714 713 714 713 714 713 714 713 713 713 713 712 712 711 710 711 712 713 714 715 713 712 711 711 713 713 715 713 713 713 713 713 713 713 713 713 714 713 714 714 714 714 713 713 715 714 714 713 713 712 712 712 712 712 713 712 713 712 713 713 712 712 713 713 712 711 713 713 713 712 711 710 711 712 712 711 712 712 712 713 713 712 711 711 711
    710 710 709 710 709 709 709 710 711 710 709 708 708 709 711 712 710 709 709 710 711 711 709 708 709 710 711 711 711 712 712 711 711 712 713 711 711 711 712 712 712 711 710 712 712 711 709 708 708 709 709 709 710 710 710 710 711 711 712 711 711 711 712 713 713 713 712 711 712 712 714 713 713 712 712 712 714 714 715 713 714 713 712 712 713 715 713 713 713 713 713 713 715 715 712 712 711 713 712 713 713 713 713 713 713 713 711 712 711 711 711 712 713 714 714 713 712 711 711 711 711 711 711 711 712 713 714 715 714 715 712 712 712 713 712 712 714 713 712 712 714 714 713 713 713 714 714 713 713 712 712 711 711 711 711 712 713 715 715 714 712 711 711 711 712 713 713 712 712 712 712 713 713 713 712 712 712 713 713 714 714 714 713 713 714 713 713 713 713 713 712 713 713 713 713 713 714 713 713 713 712 711 712 712 712 712 712 713 712 712 711 712 711 712 712 712 713 713 712 712 711 712 711 712 712
    710 709 709 709 709 709 709 709 709 710 710 709 708 709 711 712 711 710 710 711 712 711 709 709 709 710 711 711 711 711 711 710 711 710 712 711 712 711 712 713 712 710 709 711 711 711 710 711 711 711 712 711 712 712 711 710 710 711 712 711 711 711 712 713 712 712 712 711 712 712 714 713 713 712 712 712 713 713 713 712 713 712 713 713 714 714 714 712 712 711 711 713 714 713 711 711 711 713 712 712 711 712 713 713 713 712 711 713 711 711 711 712 713 712 713 714 714 712 712 713 714 712 711 710 713 714 714 714 713 713 713 713 714 713 712 712 714 714 713 713 714 715 715 713 713 712 713 712 712 711 712 712 712 711 711 712 713 713 715 714 712 711 711 713 713 713 713 712 712 712 712 714 715 715 714 712 712 713 714 715 715 714 714 714 714 712 712 712 713 713 713 713 713 713 714 713 715 714 714 712 712 712 712 712 712 712 712 711 712 712 712 711 711 712 713 714 714 714 713 712 711 711 711 711 711
    709 709 709 709 709 710 710 710 709 711 711 710 708 709 710 712 711 709 709 709 710 710 709 709 708 710 710 711 710 710 710 710 711 711 713 712 713 712 713 713 712 711 710 711 712 713 712 713 711 711 712 712 712 712 712 712 711 713 713 714 711 712 711 714 713 713 712 712 711 711 712 713 713 713 713 712 712 712 712 709 710 711 713 712 713 713 714 713 712 710 711 712 714 712 710 710 711 712 712 713 712 714 714 715 714 713 712 713 712 712 712 713 711 711 713 713 712 712 712 713 713 713 712 711 712 713 713 713 712 713 712 713 713 712 712 712 712 713 712 714 714 714 713 713 713 713 713 712 711 711 711 712 711 711 710 712 712 713 713 712 711 712 712 714 712 712 711 711 710 712 712 715 715 715 713 711 712 713 714 714 714 714 714 713 712 710 711 712 713 713 712 713 712 712 712 713 713 713 712 711 712 713 714 714 715 715 714 712 712 713 713 713 712 712 713 714 715 715 713 712 711 713 712 712 711
    708 708 709 709 709 709 709 708 708 710 712 711 709 709 710 711 711 710 711 710 711 711 712 711 710 711 711 711 710 709 709 709 711 711 713 712 712 712 712 712 712 711 710 710 711 712 713 713 712 712 713 713 713 712 712 711 710 711 712 713 710 711 710 712 710 711 710 709 709 710 711 712 713 713 712 711 711 712 712 710 709 711 711 711 713 713 714 713 712 710 711 712 713 712 712 712 712 713 713 713 714 714 714 715 715 714 713 714 714 714 713 713 712 712 712 712 711 712 712 713 713 714 714 712 712 712 712 712 712 711 711 711 712 713 714 714 713 713 713 714 713 713 713 713 714 712 712 711 712 713 713 714 713 714 712 712 711 712 712 712 711 712 713 714 713 712 712 712 712 713 714 715 715 714 713 712 713 713 714 714 714 715 714 713 712 711 711 712 714 714 713 714 714 713 713 713 714 713 712 711 712 713 713 713 713 714 713 713 713 713 713 712 712 711 712 712 713 714 713 712 711 712 711 711 711
    710 711 712 711 711 711 711 711 710 711 711 711 710 710 710 711 710 710 710 709 710 710 711 710 710 710 710 711 709 710 709 708 709 711 712 711 711 712 712 713 713 712 710 711 710 712 712 712 711 711 712 711 711 712 712 712 710 711 710 712 711 711 710 712 711 712 710 711 710 711 712 712 712 712 713 712 712 713 713 711 710 711 710 711 711 712 712 712 711 712 713 713 712 712 712 712 712 712 712 713 715 714 714 714 714 713 711 712 714 715 714 713 712 713 713 712 710 711 712 713 713 713 714 712 712 712 712 712 711 711 710 711 711 714 714 713 713 714 714 714 712 711 711 712 713 713 713 713 713 713 713 714 713 714 712 712 710 711 711 711 710 711 712 713 712 711 711 712 712 713 715 716 715 713 712 712 714 715 715 715 715 716 714 714 713 713 713 714 714 714 712 712 712 712 712 713 714 714 712 711 712 713 713 713 712 713 713 714 714 713 712 712 712 712 712 711 711 712 712 712 711 712 712 712 712
    709 709 710 710 710 710 710 709 709 709 711 711 711 710 711 711 710 710 709 709 709 709 710 711 711 710 710 710 710 709 708 707 708 709 711 710 710 710 711 712 712 712 710 710 709 711 712 712 711 711 711 712 712 712 711 712 711 712 712 712 711 710 710 710 711 712 711 711 710 711 712 712 711 711 712 712 711 711 712 712 711 709 708 709 711 712 711 711 712 713 713 713 713 712 712 712 711 712 711 712 713 714 713 713 712 710 710 711 714 714 713 712 712 712 712 712 712 712 714 713 714 714 715 713 712 712 712 712 711 711 711 711 711 712 713 712 715 716 716 713 712 712 712 712 713 713 713 714 713 713 713 713 713 714 713 713 711 711 712 711 711 712 713 714 714 714 714 713 713 714 715 715 715 714 714 713 714 715 715 714 714 715 715 714 714 713 713 713 715 715 713 712 712 713 712 714 714 713 712 711 711 711 711 711 711 711 712 713 713 713 712 711 711 711 712 711 711 711 713 712 712 711 711 711 711
    709 709 710 710 711 710 710 709 709 709 709 710 710 710 710 710 710 710 708 708 707 708 709 710 710 709 709 711 710 710 708 707 708 710 711 711 711 710 711 711 711 711 711 711 710 711 711 712 711 712 712 713 711 712 712 712 712 712 712 711 711 710 710 710 711 713 713 714 712 712 712 711 710 710 711 712 712 712 711 710 711 710 710 711 711 712 711 711 711 713 713 714 713 712 712 712 711 712 711 711 712 713 713 712 710 710 708 710 712 713 713 712 712 711 711 712 713 713 714 713 714 714 715 713 712 713 713 712 711 711 712 712 712 712 711 711 713 716 715 713 710 710 711 712 713 715 715 715 713 713 713 713 713 713 713 713 712 713 712 712 711 712 712 713 712 714 713 713 711 713 713 715 714 713 713 714 714 714 713 713 713 713 713 712 714 713 713 714 714 715 712 711 710 712 711 713 712 712 711 711 711 711 711 712 713 713 713 714 714 714 712 712 711 713 713 713 712 712 713 713 712 712 712 711 710
    708 706 707 708 709 708 708 707 709 709 710 709 709 709 710 710 710 710 708 708 708 709 710 710 710 710 711 711 711 710 709 710 710 711 712 711 711 710 711 710 711 712 711 710 708 709 710 711 710 711 712 714 712 712 711 712 712 712 712 711 711 710 709 709 711 714 713 712 711 711 711 710 711 711 711 710 711 710 711 710 710 709 710 711 712 713 712 712 713 714 713 712 712 713 713 712 712 712 712 713 713 713 712 712 711 711 710 711 713 713 713 711 712 710 711 710 712 712 713 712 713 715 715 713 712 712 713 712 712 711 712 713 714 714 714 713 714 716 716 714 712 712 713 713 713 713 714 714 712 713 712 712 712 712 713 713 713 713 712 713 713 714 713 713 714 715 715 714 712 711 711 712 713 713 713 714 714 713 712 712 712 712 712 711 714 713 713 714 715 715 713 712 711 712 712 713 713 712 712 712 712 712 711 712 713 714 713 713 713 714 713 713 713 713 713 712 712 712 713 712 714 714 712 711 711
    710 709 709 710 710 708 707 708 710 710 710 709 709 709 709 710 710 710 710 709 709 709 710 709 709 709 710 712 710 710 709 710 710 710 710 711 710 710 710 710 711 712 711 710 709 709 711 711 710 711 713 714 712 712 711 711 712 712 712 710 710 710 710 711 712 713 713 712 711 711 711 711 712 711 711 711 712 712 712 710 710 711 712 712 712 712 712 712 713 714 713 712 711 712 713 713 713 713 713 713 713 713 712 713 712 713 710 711 712 713 714 712 712 711 710 710 711 712 713 713 714 715 715 714 713 713 713 712 712 711 712 713 715 716 714 714 714 715 714 713 712 713 714 714 713 713 714 713 712 712 713 713 712 711 712 712 713 714 712 712 711 712 712 712 712 713 713 712 710 710 710 713 713 713 713 715 714 714 711 712 712 713 712 713 714 714 714 714 714 714 713 713 712 714 713 714 713 713 712 712 713 713 711 712 713 714 713 713 713 714 712 713 714 714 713 712 712 713 712 712 713 713 712 711 712
    710 709 709 710 710 708 708 708 711 711 711 708 709 708 710 710 711 710 711 709 711 709 710 709 710 710 711 711 710 710 711 712 711 710 711 712 711 712 711 711 712 712 712 710 710 710 711 711 710 711 712 713 713 713 712 712 712 712 713 712 711 711 711 711 712 713 713 711 710 709 710 711 712 712 710 710 710 711 711 711 711 711 711 712 713 713 712 711 712 712 713 711 712 711 712 712 714 714 713 713 714 713 713 714 714 714 712 712 712 713 713 712 711 710 709 709 711 711 714 712 714 714 716 713 712 711 712 711 712 712 713 712 714 715 715 714 714 714 714 714 713 713 712 711 711 712 712 711 710 711 712 712 712 710 710 710 711 711 712 712 712 711 712 712 714 713 713 713 712 711 712 712 713 713 713 714 714 714 713 712 713 713 714 714 714 714 715 714 714 714 714 714 713 714 714 714 714 713 712 712 713 714 713 712 713 714 712 712 713 713 713 713 714 714 713 712 712 713 712 712 713 712 712 710 712
    710 710 710 710 709 708 707 709 710 711 710 708 709 708 710 710 711 710 709 708 709 709 710 709 709 709 710 710 710 710 711 711 709 711 712 713 712 711 711 711 712 711 711 711 712 712 712 712 711 710 711 712 712 713 713 713 712 713 713 713 711 711 712 712 713 712 712 711 710 709 709 711 712 712 710 711 710 711 711 711 711 712 712 712 712 712 711 711 710 711 712 713 713 712 712 713 714 713 712 711 711 711 713 713 713 713 712 712 712 714 713 712 710 710 710 711 711 712 713 712 714 714 716 714 712 711 710 711 711 712 712 711 711 711 712 711 712 712 713 713 712 711 711 709 710 711 712 711 710 711 711 712 711 711 710 710 710 711 712 711 711 711 712 711 712 712 712 711 710 711 712 714 713 712 712 712 713 713 712 712 712 713 714 714 713 713 714 714 714 714 713 714 713 715 714 714 714 714 713 713 713 714 714 712 712 713 712 712 713 714 713 713 713 714 713 713 713 713 713 713 713 712 712 711 713
    709 709 710 709 709 708 709 709 710 710 710 709 710 710 710 711 711 711 709 709 709 710 710 710 711 710 711 710 711 710 711 711 710 712 713 712 711 710 712 712 712 711 711 711 711 711 712 711 711 710 711 712 713 713 713 713 712 712 712 714 713 711 711 711 711 712 712 711 711 710 710 711 713 713 711 711 710 712 713 714 713 713 712 713 712 713 712 712 711 710 711 712 713 713 714 714 715 714 714 712 712 711 712 713 713 714 713 712 714 715 715 713 712 711 712 712 712 712 712 712 714 714 716 714 713 711 711 711 711 712 713 712 711 711 713 713 713 714 715 715 714 712 712 710 711 712 713 711 712 712 713 713 713 713 713 712 713 712 713 713 713 712 713 713 714 715 715 713 713 713 715 715 715 713 712 711 713 713 715 713 714 714 715 714 713 713 714 715 715 714 713 713 713 714 713 713 714 713 713 713 714 715 714 712 712 712 713 712 712 713 713 712 712 712 713 712 712 712 713 712 713 712 713 711 711
    710 710 709 709 709 709 709 709 709 710 710 711 711 710 710 712 711 711 709 710 709 710 710 711 711 711 711 711 711 711 710 711 710 712 712 711 710 709 711 711 712 711 710 711 710 711 711 711 710 710 711 712 712 713 713 713 713 713 713 714 713 712 712 713 713 714 713 713 713 714 714 714 715 715 714 714 714 716 716 717 716 715 715 716 715 715 714 715 713 712 712 714 715 716 716 717 716 716 716 716 714 713 713 713 713 714 713 714 715 718 717 716 714 715 715 715 714 714 713 713 714 715 716 715 714 713 712 713 712 714 714 715 714 713 714 715 716 717 717 717 716 716 716 714 714 715 715 714 713 714 714 715 715 716 716 717 716 716 715 716 715 716 714 715 715 717 716 715 713 715 717 718 717 716 715 713 713 713 714 714 715 714 715 714 714 714 714 714 714 714 713 714 714 714 713 713 713 714 713 713 714 714 714 712 712 713 713 713 712 712 712 712 712 712 712 712 711 711 713 712 713 712 712 711 711
    709 709 709 708 709 710 710 708 709 708 711 712 711 711 711 711 711 710 710 710 710 710 710 711 711 711 712 711 711 710 709 710 711 712 711 709 710 710 712 712 712 711 711 711 711 712 712 712 711 711 712 713 713 713 713 713 713 712 712 713 714 713 714 714 714 714 715 716 718 718 718 717 718 717 717 717 718 719 720 720 718 717 716 717 718 717 717 717 717 714 713 714 715 717 717 717 717 718 719 718 717 716 715 716 716 717 716 717 717 719 719 720 719 718 716 717 717 717 717 717 716 715 716 715 716 714 716 715 715 715 716 716 716 716 717 719 720 720 720 719 718 717 717 718 719 719 719 718 716 716 718 719 719 719 719 719 720 719 719 719 719 719 717 718 719 720 720 719 719 718 718 718 718 719 718 714 713 713 716 715 714 713 714 714 716 715 715 714 714 714 713 713 715 714 713 712 712 712 712 713 714 713 713 711 712 713 713 713 713 712 713 713 713 713 713 712 712 712 713 712 713 712 712 710 710
    709 710 708 709 709 709 709 707 707 708 711 711 709 709 709 710 708 709 709 710 710 711 710 710 710 712 712 712 711 711 712 712 712 713 712 711 711 711 713 713 713 711 711 711 712 712 712 712 711 712 711 711 711 713 715 714 714 713 713 713 713 713 714 715 716 716 717 719 721 720 720 719 720 720 720 718 717 717 718 719 719 718 718 719 719 718 717 717 718 716 715 715 716 718 718 718 717 719 720 720 718 718 717 718 718 719 719 720 719 721 718 720 719 720 717 717 717 719 718 717 716 716 717 716 716 715 717 718 718 716 716 716 716 717 718 719 719 719 720 720 718 717 717 718 719 720 719 719 716 716 716 718 718 718 718 718 717 716 719 720 720 719 717 718 717 718 717 718 717 718 717 718 716 716 714 712 712 714 716 716 714 713 713 714 714 713 713 714 714 713 713 714 715 714 713 713 713 714 713 715 715 715 713 713 714 714 714 714 715 714 713 714 713 714 712 712 712 713 713 712 712 712 713 711 712
    708 708 708 708 709 709 708 706 707 708 711 711 711 711 710 710 709 709 710 710 711 711 711 710 709 710 710 710 711 710 710 710 711 713 713 712 711 711 713 713 713 712 711 711 712 713 713 713 713 713 712 711 712 713 714 713 713 711 711 711 712 712 712 714 715 716 717 719 718 718 719 718 718 719 719 717 716 716 718 718 718 716 716 716 716 715 714 713 714 713 713 714 715 717 716 716 716 717 718 717 716 716 716 717 717 718 717 718 717 717 716 717 716 716 715 715 715 717 718 715 715 714 716 716 717 716 718 717 718 715 715 715 716 716 717 719 719 718 718 718 717 715 716 717 718 719 718 718 717 715 715 716 717 716 715 714 715 715 718 718 718 718 718 718 715 715 715 717 717 716 715 716 716 714 713 711 713 715 716 716 714 714 714 715 714 714 715 716 716 715 714 715 715 714 713 713 713 713 712 713 714 715 714 713 713 713 712 713 714 714 714 714 714 713 713 713 713 714 713 712 713 713 713 711 712
    708 709 709 709 709 709 708 707 708 710 712 711 710 708 708 709 709 710 711 712 710 711 709 710 709 710 709 709 710 711 710 710 711 713 713 712 711 710 712 712 711 710 711 711 711 712 712 711 711 711 711 710 711 712 713 712 712 712 713 713 713 712 712 715 717 719 720 720 717 716 715 715 716 718 718 717 715 716 717 718 718 717 716 716 715 714 712 712 713 712 711 711 712 715 715 715 715 716 716 717 716 716 715 716 716 717 716 716 715 716 715 715 714 714 713 713 713 715 715 714 713 714 716 715 715 715 715 715 716 715 714 714 715 716 717 719 718 717 717 717 715 715 715 716 716 717 716 717 716 715 714 715 716 715 715 713 713 712 714 715 715 716 717 717 715 713 713 714 715 715 714 715 714 712 710 709 713 716 717 717 716 716 716 715 714 714 715 716 715 715 714 715 715 715 713 713 714 714 714 714 716 715 715 714 714 713 712 713 714 714 713 711 712 712 712 711 712 712 711 711 712 712 713 712 713
    709 708 709 708 709 709 709 708 709 711 713 713 712 710 709 710 711 711 712 712 711 711 711 711 710 710 710 710 710 709 709 709 710 711 711 711 709 709 711 711 711 710 712 712 712 711 713 711 711 711 712 711 711 712 712 711 712 712 713 713 713 713 713 714 716 718 717 715 713 714 712 711 711 713 712 712 711 714 715 714 714 713 713 712 712 711 711 711 711 710 710 710 710 711 712 711 712 712 714 714 714 713 714 715 715 714 712 712 712 712 713 711 712 712 712 710 710 711 712 711 711 711 713 713 714 713 712 712 713 714 714 713 714 714 715 716 716 716 714 713 711 712 713 713 713 714 714 714 714 713 712 712 714 713 712 710 712 711 712 712 711 713 714 714 712 710 711 711 712 712 713 712 712 710 709 707 710 714 716 716 716 716 715 714 714 715 715 715 714 714 713 714 714 714 714 713 713 712 712 711 713 713 713 712 712 711 711 712 713 712 713 711 713 711 711 711 712 712 712 711 712 712 713 712 712
    709 709 708 708 708 708 708 707 708 709 710 711 709 708 707 709 709 710 710 711 710 710 710 710 710 711 710 710 710 711 710 710 710 711 711 709 709 709 710 711 711 711 712 712 713 712 713 712 711 711 712 712 711 712 711 711 712 712 714 715 715 714 714 714 716 718 716 712 711 711 709 708 707 708 708 708 708 710 711 711 712 711 710 709 710 710 710 710 710 709 709 709 708 709 709 709 709 711 713 712 712 712 712 713 713 712 710 710 709 710 711 711 711 710 711 711 710 710 709 711 711 712 712 713 712 713 711 712 712 714 713 712 712 712 712 713 712 714 712 711 709 710 711 712 712 713 712 712 711 711 710 711 711 711 711 710 711 711 709 709 708 709 709 710 710 709 708 708 709 709 709 708 707 707 706 705 708 712 715 717 716 716 714 715 713 714 713 714 713 712 712 713 713 713 713 713 714 713 713 713 713 713 713 713 712 712 713 713 714 712 713 712 712 712 710 710 710 712 711 712 712 713 713 713 713
    709 708 707 708 708 708 708 707 708 709 710 710 709 709 709 711 711 712 712 711 711 710 711 710 710 710 710 710 711 712 712 711 711 711 712 710 710 709 710 711 711 712 713 713 713 711 712 712 713 712 712 712 712 712 712 713 713 713 713 714 714 714 713 713 715 715 711 705 704 705 705 704 703 703 703 703 703 704 706 706 707 705 705 704 706 706 705 705 705 705 706 706 706 706 705 704 705 708 709 709 708 708 709 709 709 708 708 707 706 706 709 710 710 709 709 709 709 708 708 709 709 708 709 711 712 712 710 710 711 712 712 711 711 710 709 711 711 712 711 709 707 707 709 710 710 710 709 708 708 707 707 707 708 708 708 707 709 709 709 709 707 706 706 707 706 706 705 704 705 705 706 703 703 702 703 702 704 708 713 716 717 715 714 715 714 715 714 714 714 713 713 713 714 714 713 713 713 714 712 712 711 712 713 713 713 712 713 713 714 712 712 712 713 712 709 710 710 711 711 711 712 712 712 712 712
    709 708 707 708 709 710 708 707 707 708 708 709 707 708 707 710 710 710 711 711 710 709 709 710 710 710 709 709 709 711 711 711 711 711 712 711 711 710 710 711 712 712 712 712 712 711 711 712 713 713 713 713 712 713 712 713 712 712 713 715 716 716 715 715 718 715 708 702 701 701 700 700 700 701 703 703 702 702 703 703 702 702 702 703 704 704 703 702 703 702 702 702 703 703 702 703 705 707 708 707 706 706 706 707 708 708 708 708 706 706 707 708 708 708 708 709 709 708 708 708 709 708 709 711 712 712 711 711 711 711 710 709 708 709 708 710 710 710 709 709 707 707 708 709 709 709 708 706 704 704 704 706 706 707 706 707 707 706 706 705 705 705 703 703 704 705 703 703 703 704 703 701 700 700 701 701 701 706 712 716 717 716 715 716 715 716 715 715 715 714 714 713 714 715 714 714 714 716 714 714 713 714 714 713 713 712 713 713 714 714 714 714 713 713 710 711 711 712 711 711 712 713 711 711 711
    709 709 709 709 709 710 709 709 709 709 709 709 708 707 708 710 710 710 711 710 710 710 709 711 711 711 709 709 708 709 709 710 710 709 711 712 712 710 711 712 712 712 712 712 712 711 711 711 713 712 713 712 713 712 713 714 713 712 712 714 716 716 715 716 719 715 704 697 695 696 696 696 698 699 700 699 698 700 699 699 698 699 699 700 701 700 700 699 700 699 699 699 699 700 699 700 701 704 704 705 704 704 704 704 705 706 706 705 704 704 705 706 706 705 705 706 707 707 707 707 708 707 708 709 711 709 708 707 708 708 708 708 708 708 707 707 708 708 709 707 707 706 705 705 705 704 705 703 703 702 702 702 703 703 702 702 702 702 703 703 703 703 702 701 701 702 701 700 699 700 700 698 697 698 698 699 698 703 708 714 716 716 716 716 717 716 715 714 716 716 715 713 714 715 715 713 712 714 715 714 714 713 713 712 714 713 713 712 714 715 714 713 712 712 711 711 711 711 711 712 712 711 711 711 711
    708 708 708 708 709 709 708 708 708 708 708 708 708 707 707 709 708 709 709 710 710 710 710 711 711 712 710 709 708 709 709 711 710 710 711 711 711 710 711 712 711 711 710 711 711 712 711 711 712 713 715 714 714 713 714 714 714 713 713 715 716 717 716 717 720 714 701 694 693 694 693 695 696 697 697 697 698 698 697 696 696 698 698 699 699 700 701 700 699 698 698 698 698 699 699 702 701 701 700 701 700 701 701 703 704 705 704 703 702 704 704 704 704 702 703 704 706 706 706 707 708 708 708 708 708 707 706 706 706 707 708 708 707 706 706 706 706 707 706 705 704 704 704 703 703 703 703 704 702 701 701 701 700 700 699 700 700 700 698 699 699 700 700 700 700 701 700 698 696 697 696 696 695 696 696 698 696 700 706 714 716 717 716 717 717 716 716 715 716 716 715 713 713 715 716 715 713 714 715 715 716 714 713 712 714 714 713 713 713 715 715 713 712 712 712 712 711 712 713 714 713 713 712 712 711
    708 708 708 708 709 708 708 709 709 709 709 709 709 709 709 710 710 710 710 710 709 709 709 711 712 712 710 709 709 710 710 711 710 709 710 711 711 710 711 711 711 711 710 710 710 711 711 711 711 712 713 713 713 713 714 714 714 713 713 714 716 716 714 716 719 711 699 692 691 691 692 693 693 693 692 693 693 695 695 695 696 697 697 696 695 696 697 697 696 695 696 697 697 699 699 699 697 698 698 699 699 699 699 699 699 700 699 698 697 699 701 702 703 699 700 700 703 704 704 705 706 706 705 705 705 704 703 703 704 705 706 705 706 704 703 702 703 703 703 702 701 701 701 700 699 699 701 701 700 699 699 698 698 697 697 697 697 698 696 696 695 697 697 698 698 698 697 694 693 693 694 693 694 694 695 696 695 697 704 712 716 717 716 716 716 715 716 715 715 714 714 713 713 714 714 713 713 713 714 714 714 712 712 712 713 713 712 712 713 713 714 712 711 711 711 712 711 711 711 712 711 711 712 712 712
    707 707 708 708 709 709 709 709 709 709 708 709 709 710 710 710 710 711 710 710 709 709 709 710 711 712 710 709 710 711 711 711 710 711 711 711 711 711 711 711 711 711 710 710 710 710 710 711 711 714 714 715 713 714 713 715 714 715 715 717 717 717 715 717 718 708 696 690 690 689 691 693 692 692 691 693 693 694 694 695 695 695 695 696 695 696 695 695 694 695 695 696 697 699 698 698 696 696 696 698 697 697 697 697 696 696 697 696 697 697 699 700 701 699 700 700 702 702 703 704 704 706 705 706 705 705 703 703 702 703 704 704 705 704 702 702 702 702 700 699 699 700 700 699 698 699 700 700 699 699 698 698 696 697 696 697 697 697 695 695 695 695 694 695 696 697 695 694 693 694 694 693 693 692 694 695 695 695 703 711 716 717 716 716 715 717 717 717 716 716 715 715 714 715 715 715 715 715 715 714 714 713 713 713 713 712 712 712 713 713 712 711 711 711 711 711 711 712 712 712 711 712 712 712 711
    707 708 709 709 709 709 709 709 709 709 709 709 710 710 710 710 711 712 712 710 709 708 709 709 710 710 709 709 710 710 710 710 710 710 711 712 712 712 713 713 712 712 712 711 712 711 711 712 713 714 713 713 713 713 713 713 712 713 714 716 717 716 714 715 717 706 696 690 690 689 691 692 690 690 689 692 692 694 694 694 693 693 693 693 693 692 692 693 694 695 694 695 695 696 694 693 692 693 696 697 698 697 696 695 694 694 695 695 695 696 698 699 700 699 699 698 699 700 701 701 702 703 704 704 704 703 702 702 701 700 699 700 702 701 699 698 699 699 699 697 698 697 697 696 696 696 698 697 697 697 696 695 695 695 694 694 695 696 695 695 695 694 693 692 693 693 692 691 690 692 693 692 691 690 693 694 694 693 700 708 715 715 716 716 716 716 715 715 714 714 714 714 714 714 714 713 714 714 714 713 714 713 714 713 714 712 713 713 714 714 713 712 713 713 712 712 712 711 710 710 710 711 711 711 711
    707 708 708 709 709 709 709 708 707 708 707 708 708 710 709 710 710 711 711 711 711 710 710 710 711 710 711 711 711 711 710 711 711 711 711 711 711 712 712 713 712 712 712 712 712 712 711 713 714 715 714 714 714 714 713 713 713 713 714 716 717 716 715 717 718 706 694 689 688 688 689 689 689 689 690 692 693 694 693 693 692 692 692 691 692 691 691 692 692 694 694 694 694 693 692 691 691 691 693 695 696 696 695 694 694 694 695 696 696 697 698 699 699 699 698 698 699 699 700 700 702 703 705 705 704 703 701 701 699 700 699 700 700 701 698 698 698 699 698 698 697 697 696 696 695 697 696 696 694 696 695 696 695 695 693 692 693 695 695 695 695 694 692 692 692 693 692 691 690 690 689 689 689 690 691 693 693 691 697 706 714 716 717 717 717 716 716 716 714 714 714 714 714 714 714 714 716 715 715 715 715 715 715 714 713 714 714 714 714 714 714 713 713 714 713 713 712 712 711 711 711 712 712 712 712
    707 709 709 709 709 709 710 709 709 709 710 710 711 710 710 710 710 711 710 710 710 710 711 710 709 709 709 710 710 710 711 711 710 710 710 710 710 711 712 713 711 711 710 712 712 712 712 713 713 713 712 713 714 714 713 713 713 713 713 714 715 715 714 717 718 705 693 688 687 686 687 687 686 686 688 690 690 691 690 691 692 691 690 687 688 688 690 689 689 690 690 690 690 689 689 688 690 690 692 693 695 695 693 692 693 694 694 694 694 695 697 697 698 697 696 695 696 697 699 698 700 700 701 700 700 699 698 698 698 697 695 697 696 697 695 695 696 697 696 695 695 696 695 694 694 696 694 694 692 694 694 695 694 693 691 690 691 692 692 693 694 694 691 690 691 691 690 688 688 688 688 688 687 688 689 690 689 688 693 703 712 716 717 717 718 716 716 715 715 713 714 714 714 713 713 713 714 713 713 712 713 714 714 714 712 713 713 714 714 714 714 714 714 715 714 714 713 712 711 711 711 711 711 712 712
    708 709 708 709 709 709 709 708 708 708 708 710 710 709 709 709 709 710 709 709 709 710 710 710 709 710 710 710 710 710 711 711 711 710 709 709 709 710 711 713 711 711 710 710 709 710 711 713 713 713 712 715 715 715 713 714 714 715 715 716 716 716 717 722 719 702 690 686 685 686 686 685 685 686 686 687 687 688 688 689 691 690 689 686 687 688 690 689 688 688 689 689 689 688 688 688 689 690 690 692 692 694 692 692 691 693 694 694 693 693 695 695 697 697 696 695 696 698 698 698 699 699 699 699 699 699 698 697 697 698 696 697 696 697 693 694 695 697 695 694 694 695 694 695 695 696 694 694 692 694 694 694 692 692 692 691 690 690 691 693 693 693 690 689 689 689 688 687 688 689 689 687 687 688 688 688 687 687 690 700 710 717 718 718 717 718 717 716 715 715 716 716 716 716 715 715 714 714 713 712 712 714 714 714 712 714 714 714 713 713 713 713 713 714 713 713 712 713 712 712 712 713 712 713 712
    708 709 708 709 710 710 709 709 709 709 710 710 711 709 710 709 710 710 710 709 708 708 708 708 709 709 709 708 709 709 710 710 712 711 710 710 710 712 711 712 711 712 712 710 709 709 711 713 713 713 712 714 714 714 714 714 714 714 714 715 715 715 717 721 717 699 688 685 685 686 686 685 684 683 683 684 685 685 687 688 689 688 688 686 686 687 688 688 687 688 688 688 686 687 688 687 687 688 689 690 691 692 691 690 690 691 693 692 692 691 693 692 694 694 694 693 694 695 695 695 695 694 694 694 696 696 697 696 696 696 694 694 693 694 692 692 692 694 693 693 692 693 694 695 695 695 694 694 694 694 694 692 689 688 688 688 688 688 689 691 691 691 689 687 687 686 687 686 688 689 689 687 686 686 686 686 686 686 688 697 708 715 716 716 718 719 717 715 715 714 715 715 715 715 715 715 714 713 711 710 710 712 713 714 713 714 714 714 713 714 714 714 714 714 713 713 713 713 712 712 712 712 712 712 711
    708 708 707 709 709 709 708 707 707 709 708 708 707 707 708 708 709 709 709 709 709 709 708 708 710 711 710 710 710 710 710 710 711 711 711 710 712 712 712 712 711 712 712 711 709 709 711 714 712 713 714 714 714 712 713 712 713 713 714 716 717 717 719 723 713 694 685 684 684 685 685 685 684 683 681 682 683 684 686 687 688 687 687 686 685 687 688 688 686 687 687 687 685 687 687 688 687 688 689 690 690 691 690 690 691 692 693 692 692 691 692 692 692 692 693 692 691 692 693 693 692 694 695 695 696 696 697 696 696 695 694 693 693 694 692 692 690 692 692 694 693 693 694 695 694 693 693 694 694 694 692 691 689 687 686 686 686 688 688 689 689 689 687 686 684 685 686 687 688 688 688 685 685 684 685 685 684 684 686 695 707 714 715 715 717 719 717 716 715 714 715 715 715 716 716 716 716 714 713 712 711 713 713 714 713 714 714 713 712 714 714 715 713 714 713 714 713 712 712 711 712 714 714 714 712
    708 708 708 709 709 711 709 709 708 710 708 708 707 708 708 708 710 710 710 709 710 709 709 709 711 711 711 710 711 710 710 709 711 710 710 710 713 712 712 711 711 711 712 711 711 711 712 713 710 712 712 712 712 712 712 711 712 712 714 715 716 716 718 722 709 692 684 683 683 682 684 683 682 681 680 681 681 681 684 685 687 685 686 685 685 684 684 684 685 685 684 684 684 685 685 686 685 685 686 688 689 688 688 688 690 689 690 689 690 690 691 691 690 690 690 690 688 688 688 689 690 691 692 692 693 694 694 694 693 692 691 690 692 693 692 690 689 690 690 692 692 693 693 693 691 689 689 691 692 692 689 689 688 686 685 685 685 685 686 686 686 686 685 684 683 684 685 685 686 686 685 682 682 683 685 684 684 681 682 691 704 713 715 715 716 717 717 716 715 714 713 714 714 715 715 715 715 714 714 713 712 712 713 714 713 713 713 712 712 714 715 715 714 714 714 713 713 712 711 710 711 712 714 714 712
    708 708 708 708 708 709 709 709 709 710 708 708 707 708 707 707 708 710 709 709 710 710 711 710 711 710 711 711 712 711 711 710 710 709 708 709 712 712 712 711 712 710 711 711 712 712 711 711 710 712 712 712 712 712 712 711 712 712 714 715 717 718 720 723 705 689 681 680 680 680 681 682 682 682 681 682 682 681 682 682 685 683 684 682 683 682 683 683 683 681 681 683 682 683 683 686 685 685 685 688 689 688 688 688 689 689 689 689 689 689 690 690 688 689 689 688 685 687 687 688 689 691 691 692 692 693 692 692 691 692 690 690 690 690 689 689 689 690 689 690 691 692 692 691 689 686 685 688 689 689 686 687 687 687 686 686 685 684 684 684 684 684 683 682 681 683 684 685 684 684 682 682 682 682 683 683 682 680 680 688 702 712 716 716 716 716 716 716 716 714 714 714 714 716 715 714 714 714 715 713 712 712 713 713 713 713 712 712 712 714 714 713 713 714 714 713 713 711 710 710 711 712 713 713 712
    708 708 708 708 707 707 708 708 708 708 708 709 708 708 707 707 708 709 709 708 709 710 711 709 710 709 711 710 711 710 711 711 711 709 709 710 711 712 712 712 712 710 711 712 713 712 711 710 710 711 711 713 713 713 711 712 713 713 714 715 717 717 720 722 704 687 678 677 677 678 680 680 680 679 680 681 681 680 679 680 682 681 682 681 682 680 681 682 682 681 681 681 681 681 682 684 684 683 684 685 687 687 687 685 685 684 684 685 687 688 689 687 686 687 687 687 685 686 686 686 686 686 687 688 689 690 689 690 688 688 687 688 688 686 687 687 689 687 686 686 687 687 687 687 687 686 684 685 686 688 685 685 684 684 684 684 683 681 681 682 682 682 682 680 680 680 682 683 683 682 680 680 681 680 681 680 680 678 679 685 698 709 716 717 716 715 716 715 715 714 714 714 714 715 715 714 714 714 714 712 711 711 712 713 713 713 714 713 713 713 713 713 713 713 713 711 712 711 710 709 710 711 711 711 712
    706 707 707 707 706 706 707 708 708 709 709 709 708 709 708 707 707 708 708 708 708 709 709 708 709 709 710 710 711 711 711 711 711 710 710 711 710 711 711 712 711 710 711 711 712 711 711 710 711 710 711 713 713 713 712 713 712 712 713 715 717 717 722 723 701 684 677 675 675 677 678 678 678 677 677 679 679 679 678 679 679 679 680 679 680 679 680 679 678 679 679 680 679 680 680 683 682 684 683 684 683 684 685 684 684 683 684 684 684 686 686 685 684 684 685 684 684 686 687 687 685 686 685 688 687 688 687 688 686 687 686 686 685 684 684 685 686 686 685 685 684 684 683 684 686 685 683 683 683 684 682 682 682 682 682 682 681 680 680 682 681 682 681 680 679 678 680 680 680 680 679 679 679 679 679 678 678 678 679 683 695 706 715 717 718 716 716 715 716 715 715 715 715 715 714 714 713 714 713 712 711 712 712 713 714 714 714 713 711 711 711 712 712 712 713 712 712 710 710 712 712 713 712 711 711
    706 707 707 707 706 707 707 708 708 709 710 709 709 709 709 709 708 708 708 708 708 709 708 708 709 709 710 710 710 710 710 711 710 710 710 711 709 711 711 711 710 710 711 711 711 711 712 713 713 711 712 712 713 713 713 714 714 714 714 715 716 717 724 723 698 682 676 674 675 676 677 676 676 675 675 675 676 677 678 679 679 679 679 679 679 677 676 676 676 678 679 679 678 677 678 678 679 681 680 680 678 678 679 679 680 680 681 682 683 682 682 680 680 681 683 683 684 684 685 684 684 685 686 686 684 685 685 685 683 683 682 682 681 681 682 682 683 683 682 681 681 681 680 680 683 684 683 681 681 682 683 683 681 680 679 679 679 678 678 679 679 680 679 679 679 677 677 675 676 676 677 676 675 674 675 675 676 676 677 680 691 703 713 715 716 715 717 716 716 714 714 714 715 714 714 713 711 712 712 712 711 712 713 714 714 715 714 713 711 710 711 713 713 712 712 710 711 710 711 711 712 712 712 711 711
    706 707 707 708 707 709 709 710 709 709 710 709 709 709 709 709 708 709 709 709 708 708 708 709 709 708 708 709 709 710 710 711 710 710 710 710 709 710 710 711 710 711 711 711 711 712 713 714 714 712 713 713 713 714 715 716 715 715 714 714 714 717 724 721 693 680 676 674 674 673 673 673 674 674 674 674 676 676 676 676 676 677 677 677 677 677 675 674 673 674 675 675 674 673 674 674 675 677 677 677 674 674 676 677 679 680 680 681 681 680 679 679 679 679 679 680 682 683 683 683 683 685 685 684 681 683 683 684 681 682 680 681 680 681 680 680 681 682 680 679 679 680 680 679 679 681 680 679 677 678 680 681 680 680 679 678 677 677 676 678 677 679 677 678 676 676 675 673 672 674 675 676 675 674 673 673 674 675 675 677 688 702 711 714 715 717 716 715 714 714 714 714 714 715 714 714 711 712 711 712 712 713 714 715 714 715 713 712 710 711 711 713 712 712 712 712 713 713 713 713 714 714 713 712 711
    706 707 707 708 709 709 709 709 709 708 710 709 710 709 709 708 708 707 708 709 708 708 707 707 708 708 709 709 709 710 711 712 711 710 709 709 711 712 712 712 712 713 712 712 712 712 712 713 713 713 714 714 715 715 716 717 716 716 715 715 714 718 726 719 690 678 674 673 673 672 672 671 672 671 671 671 673 673 672 672 673 674 675 674 674 673 672 672 670 671 672 672 671 671 672 672 672 673 674 673 672 671 673 673 675 676 678 677 677 676 677 677 677 676 678 679 680 680 681 679 681 681 683 681 679 680 680 681 679 679 678 679 678 679 678 678 679 678 677 676 677 677 677 676 676 677 676 677 677 678 678 678 677 678 676 676 674 675 674 674 673 673 674 674 674 674 673 673 671 672 673 675 674 672 671 672 672 671 671 673 683 699 710 715 714 715 714 713 713 713 713 713 713 714 714 713 712 712 713 712 712 713 714 714 714 715 714 714 713 714 714 715 713 713 712 712 712 713 713 712 713 713 713 711 711
    706 706 706 708 708 709 709 709 708 708 708 708 709 708 709 709 709 709 709 710 709 709 707 708 708 710 710 710 709 710 710 711 710 710 709 709 710 711 712 712 712 712 712 713 712 712 710 711 711 712 713 714 715 716 716 716 714 714 714 715 715 719 727 718 687 675 671 669 669 669 669 668 668 669 669 668 668 668 668 668 668 670 669 670 670 670 670 669 669 668 669 668 668 668 669 669 670 670 671 670 669 669 670 671 673 673 674 673 673 674 675 677 674 674 673 675 676 678 680 679 678 679 679 679 677 679 679 680 680 679 678 679 678 680 679 681 679 677 675 675 676 676 676 676 676 675 674 675 674 675 674 675 675 676 675 673 671 672 673 674 672 671 671 672 671 672 672 673 671 672 671 673 673 673 672 672 671 670 671 672 678 695 708 716 715 716 715 714 714 715 715 715 714 716 715 715 714 714 714 713 713 714 714 715 713 712 711 713 713 715 714 715 712 713 711 713 712 714 713 713 712 713 713 713 712
    706 706 707 709 709 709 709 709 709 708 710 710 711 710 711 710 711 710 710 709 710 708 708 708 709 710 710 710 709 710 710 711 710 710 710 709 711 711 712 712 713 712 712 711 711 709 709 710 711 711 711 712 713 714 715 715 713 714 714 716 717 720 729 715 685 672 668 666 666 666 666 664 665 664 666 664 665 665 666 665 666 666 667 667 668 667 668 667 667 667 667 667 666 666 667 666 669 669 670 668 668 668 669 669 669 669 671 671 672 671 673 673 672 672 673 674 673 675 676 676 676 676 676 676 677 677 678 677 680 679 678 677 676 676 676 677 677 676 676 674 675 674 674 674 675 674 673 672 673 673 671 672 672 673 672 670 670 670 671 669 669 667 668 668 669 670 671 671 670 670 670 671 672 672 671 670 670 668 669 669 675 690 706 715 716 716 716 714 714 715 715 714 714 714 714 712 713 714 714 712 712 712 713 713 713 712 713 714 715 715 714 714 712 712 711 711 710 711 711 710 710 710 712 712 712
    706 706 706 707 707 708 708 708 707 707 708 710 710 709 709 710 711 712 712 710 709 709 710 710 710 709 709 709 708 710 710 711 710 710 710 709 709 709 709 710 710 710 709 709 709 709 710 711 712 712 711 711 711 713 712 713 712 713 714 715 717 720 729 711 681 670 667 666 665 665 664 664 663 664 666 666 665 665 666 667 666 666 665 666 668 668 667 666 666 667 666 665 665 665 666 666 668 668 668 667 667 667 668 669 668 668 668 670 671 672 672 673 670 671 671 672 671 672 673 673 673 674 673 674 674 675 676 675 676 676 676 675 675 675 674 675 675 675 674 673 673 672 672 672 673 673 672 672 671 671 669 670 670 670 669 668 670 670 670 670 670 670 668 669 668 669 669 670 669 670 668 670 669 670 670 669 670 669 670 669 674 688 703 714 715 717 718 716 715 715 716 715 714 715 714 714 714 714 713 712 711 712 712 714 713 712 711 712 713 714 713 713 712 712 711 711 710 711 712 711 711 711 712 712 712
    706 706 707 707 708 709 709 709 707 708 709 710 710 709 708 709 709 710 709 708 708 708 709 709 709 708 708 709 709 710 710 711 711 711 711 710 710 710 711 711 710 710 710 709 710 710 710 710 711 712 712 712 712 712 712 712 714 714 716 715 717 721 731 712 684 672 670 669 669 667 666 666 666 666 668 668 668 668 669 669 669 669 668 668 671 671 670 668 668 669 668 666 666 666 668 666 668 668 670 669 670 669 670 670 669 669 670 670 671 671 673 673 672 671 671 672 672 670 670 671 671 671 673 673 675 672 673 671 673 673 674 673 673 673 673 672 672 672 673 671 671 670 671 671 672 670 670 671 671 671 669 669 668 670 670 670 673 672 671 669 670 670 668 667 668 669 670 670 669 669 669 669 671 670 671 669 670 669 668 667 673 689 704 714 715 715 716 715 714 712 712 712 712 711 712 713 712 712 712 713 712 712 712 713 713 713 714 713 713 713 713 712 711 711 711 711 711 711 711 711 711 710 712 711 711
    705 705 706 706 707 708 708 708 707 708 708 710 708 708 707 708 708 708 707 707 707 708 709 709 710 708 709 709 710 710 711 711 710 709 710 709 711 711 711 710 710 709 710 710 711 710 709 708 711 711 713 711 712 712 712 712 713 713 714 713 715 718 728 717 688 676 674 673 672 671 671 672 672 672 672 673 673 672 672 672 672 672 671 672 673 673 671 668 669 670 671 669 669 668 670 669 670 670 671 670 671 671 670 670 671 672 671 670 670 670 672 672 672 671 671 670 670 669 670 671 671 671 672 674 674 671 671 670 672 673 673 672 673 674 674 673 672 673 672 671 671 670 671 671 672 669 670 671 672 672 671 670 670 671 671 671 673 674 673 670 672 673 672 670 670 671 671 671 671 671 671 669 669 669 671 670 672 671 670 669 675 692 707 716 715 715 716 716 715 712 713 712 713 713 714 715 714 713 713 714 713 713 713 713 713 713 713 712 712 712 713 711 711 710 711 711 712 711 711 711 711 711 712 711 711
    707 706 708 707 708 708 708 708 708 708 708 709 709 708 708 709 708 708 706 707 707 708 708 708 709 707 708 708 710 709 710 710 709 708 708 709 710 711 711 711 711 710 711 710 712 711 710 709 711 712 713 712 712 714 714 714 714 713 714 712 713 715 725 722 695 682 678 677 677 675 676 676 677 675 675 675 676 676 675 675 675 673 673 673 675 675 675 673 673 673 674 672 672 671 671 670 672 673 675 674 674 673 673 673 674 674 675 674 673 672 674 674 674 673 674 673 673 672 673 674 674 674 674 675 675 673 674 673 674 675 676 675 675 675 675 674 673 674 674 674 673 673 674 675 675 672 671 672 674 674 674 672 674 674 675 674 676 675 674 671 672 674 673 671 671 673 672 671 672 673 673 671 671 672 673 673 673 672 670 670 677 695 710 717 716 716 717 717 716 714 713 713 714 714 715 715 714 713 713 713 714 713 712 711 712 713 713 712 711 710 711 710 710 709 710 711 711 711 710 709 710 709 710 709 711
    707 707 708 707 708 708 708 707 707 707 708 709 708 709 709 709 709 708 707 706 706 707 708 708 708 707 708 707 709 710 711 710 709 708 709 709 711 710 711 710 710 709 711 710 710 709 710 710 712 712 712 711 712 714 715 714 714 712 713 712 712 714 723 725 700 685 679 679 679 678 678 677 678 677 676 676 677 677 675 674 675 674 676 675 675 674 673 673 672 673 673 671 671 671 672 672 673 672 672 673 672 672 672 674 676 675 674 674 674 674 674 674 674 674 674 673 672 672 674 677 676 677 676 677 676 676 676 675 674 674 675 674 674 675 675 675 674 674 674 675 674 674 674 675 676 674 672 673 675 676 675 674 675 675 674 673 673 675 675 674 673 674 674 674 672 672 672 672 673 674 673 671 670 672 673 673 673 672 671 671 681 696 710 715 715 715 716 716 716 715 715 715 715 715 715 714 715 714 714 713 714 713 712 711 711 712 712 712 711 710 711 711 711 710 710 711 712 712 710 710 710 710 711 710 710
    708 708 708 708 707 708 707 707 707 707 708 708 708 709 709 710 710 710 709 708 708 708 707 708 708 708 709 708 709 711 711 710 709 710 711 710 710 710 710 710 710 710 711 711 711 710 711 710 711 712 712 711 712 713 714 715 715 715 714 714 714 715 722 725 706 690 683 682 682 682 682 680 680 680 679 678 677 678 677 677 678 677 679 678 678 676 675 675 674 675 674 673 673 673 673 674 673 674 674 675 673 673 673 675 675 674 675 676 677 677 677 677 677 676 675 674 675 676 678 680 680 681 680 679 678 678 677 677 674 675 676 676 676 677 677 676 673 674 675 677 675 675 675 676 677 677 675 676 676 678 676 677 676 677 674 674 673 675 675 676 675 675 674 675 674 675 675 674 674 674 673 672 672 674 675 675 674 672 672 673 685 700 710 713 714 715 716 714 714 715 716 716 715 716 715 714 714 714 714 713 713 713 712 712 711 713 712 712 712 712 712 712 711 711 711 711 711 711 710 709 710 711 712 711 711
    708 707 708 708 707 707 707 707 708 708 709 709 709 708 709 710 711 709 708 708 709 708 708 708 708 709 710 708 708 709 710 710 710 710 710 709 710 709 710 710 710 710 710 710 709 709 709 708 709 710 711 710 711 712 713 713 714 713 714 713 714 715 720 725 711 692 685 683 684 684 684 682 682 681 680 679 679 679 679 679 680 680 682 682 680 677 674 674 674 675 675 675 674 674 674 675 674 675 675 676 674 673 673 674 675 674 675 676 677 677 678 677 677 675 675 674 675 676 677 679 681 682 681 679 678 676 676 676 675 676 676 677 677 678 678 676 674 674 675 677 677 676 676 676 677 677 675 676 676 678 677 677 676 677 676 675 673 674 675 677 677 676 676 676 677 676 677 677 677 675 673 673 674 674 674 674 675 675 675 676 689 703 712 714 714 715 715 714 714 715 716 714 713 714 714 714 714 714 715 714 713 712 712 712 713 713 712 712 712 712 712 712 712 712 712 712 712 711 711 710 711 711 712 712 711
    708 708 708 709 707 707 706 707 707 708 708 708 708 707 708 710 711 710 708 708 709 709 708 708 708 708 709 710 709 710 710 711 709 710 709 709 709 708 709 709 710 710 709 710 709 710 710 709 710 711 711 711 712 713 713 713 714 715 715 715 715 716 718 724 712 693 685 684 686 686 685 684 683 683 682 682 681 681 682 682 680 680 680 683 681 679 677 676 676 677 677 678 677 676 675 676 676 678 678 680 677 676 674 675 676 677 678 678 680 680 680 680 680 679 679 678 678 678 679 681 683 684 682 679 677 677 678 679 678 679 679 680 679 680 679 677 676 678 678 679 679 678 678 678 678 678 677 678 678 680 679 679 678 679 678 679 677 677 675 679 678 679 679 680 680 679 679 677 677 675 676 678 679 678 676 676 677 678 678 681 693 705 713 715 715 716 716 715 715 715 716 713 712 713 714 714 713 714 714 714 712 713 713 714 714 714 713 712 712 712 712 712 711 710 711 712 711 710 709 709 710 711 712 713 712
    708 707 708 709 708 707 707 707 707 707 708 708 708 708 708 710 711 709 707 707 708 708 708 708 708 709 709 710 709 708 707 708 707 707 707 708 709 708 709 708 710 710 709 708 708 709 710 710 711 711 711 712 712 713 713 712 713 714 715 714 715 716 717 722 714 694 684 681 682 683 684 683 683 682 682 683 683 682 682 682 681 681 681 683 682 680 679 677 677 677 678 679 678 678 678 678 679 679 680 680 680 678 677 677 679 680 679 680 680 681 680 680 680 680 681 680 680 679 679 680 683 683 683 680 679 679 680 680 680 681 681 680 680 680 680 679 679 681 681 681 681 681 680 679 679 678 678 678 680 682 681 679 679 680 681 682 680 679 678 680 680 680 681 680 680 679 679 677 679 677 679 679 680 680 678 678 679 679 679 682 694 706 714 715 715 715 715 714 715 715 715 712 711 712 712 713 713 714 714 713 712 712 712 712 711 711 711 711 712 711 712 713 712 711 712 713 713 712 712 712 711 712 712 713 712
    708 708 709 709 708 708 706 706 706 706 707 708 707 707 707 709 709 709 707 708 707 707 707 708 708 710 710 711 711 710 709 709 708 708 709 711 712 712 711 710 711 712 711 710 710 711 711 711 712 712 712 712 713 713 713 713 715 715 715 715 716 717 717 720 714 696 683 681 681 681 682 683 683 684 683 684 684 684 683 684 683 684 683 683 681 681 681 680 679 679 679 679 679 681 682 682 681 681 681 681 681 680 678 678 680 681 681 682 682 683 681 682 682 684 684 683 682 682 682 682 684 685 685 683 683 682 682 683 683 684 683 683 683 682 682 682 681 683 682 683 681 682 681 680 679 681 681 682 682 683 683 682 682 681 681 682 683 682 680 681 681 681 682 681 682 681 680 679 680 681 682 682 683 683 682 681 681 680 680 686 698 709 714 714 714 714 715 713 714 715 714 713 712 714 712 713 714 715 715 714 713 713 712 711 711 711 712 713 713 712 713 714 713 711 710 711 711 711 710 712 712 712 711 712 712
    708 707 708 708 707 706 705 706 707 708 708 708 708 707 708 710 710 709 708 709 709 709 708 708 709 709 710 710 709 708 708 707 708 708 709 710 711 712 711 709 711 711 711 710 711 710 710 709 711 712 712 711 712 712 714 714 715 713 712 712 715 716 716 718 716 699 686 682 681 681 681 682 684 684 685 684 685 685 684 684 684 685 685 684 683 681 681 679 679 680 680 680 680 682 683 684 683 681 681 682 683 682 681 680 681 681 683 683 683 683 682 682 682 684 684 684 683 683 682 683 685 686 687 685 686 686 685 685 685 685 685 685 685 684 684 683 683 682 682 683 683 684 682 681 683 684 685 683 683 683 683 683 683 682 682 682 684 683 682 681 683 682 683 681 682 681 681 680 682 682 683 681 683 682 683 682 682 679 679 686 699 710 715 714 715 715 716 715 715 714 714 714 714 716 714 713 714 714 714 713 713 711 711 710 710 710 711 712 713 712 713 712 712 710 711 711 711 711 712 712 712 712 711 711 712
    709 708 708 709 708 707 706 707 707 708 707 707 707 706 706 707 708 708 709 709 709 708 708 708 707 708 708 709 710 711 710 709 708 709 708 710 710 711 711 710 710 709 710 710 711 711 710 709 709 711 713 712 712 713 713 714 713 713 713 713 715 715 715 718 717 703 689 685 684 683 683 684 684 685 685 685 685 685 685 685 686 688 687 687 684 683 683 682 683 682 681 682 682 683 682 683 682 682 682 685 685 684 683 683 683 684 685 687 686 686 684 685 685 687 687 687 686 685 685 685 689 689 689 687 688 688 688 688 687 686 687 688 688 686 686 685 685 684 684 685 685 685 684 684 686 687 688 686 686 685 685 685 685 684 684 685 687 686 684 684 685 683 683 682 683 683 683 682 684 684 685 684 684 684 684 684 683 681 680 688 701 712 715 715 715 716 716 715 714 714 713 714 714 715 714 713 713 712 713 712 712 712 712 712 712 712 712 713 713 712 712 711 711 709 709 709 710 711 711 711 711 710 710 710 710
    708 707 708 708 707 707 706 707 708 708 708 707 707 707 708 707 708 708 709 709 709 709 709 709 708 708 708 708 708 709 708 708 706 707 707 708 709 709 709 709 709 708 709 708 711 711 711 709 709 711 713 712 711 712 714 713 713 713 713 713 714 715 715 717 717 704 691 685 684 685 686 685 685 684 686 686 686 685 686 685 686 686 687 687 685 684 684 683 683 683 685 684 684 684 683 683 682 681 682 685 687 687 686 687 686 687 686 687 687 687 687 686 687 687 686 687 687 685 686 686 690 689 690 689 690 689 690 689 689 688 689 688 688 687 687 687 688 687 687 685 684 685 686 686 687 688 690 689 689 687 686 684 685 685 687 688 689 687 686 687 687 685 685 685 685 685 685 683 683 682 684 683 683 683 685 685 683 681 681 689 702 712 714 713 714 716 716 716 715 714 713 713 713 714 714 713 712 710 711 710 711 711 711 711 711 711 711 711 712 712 713 711 712 710 710 710 711 711 713 712 711 710 710 711 711
    707 707 707 709 708 709 707 708 707 708 707 707 707 707 707 707 707 707 708 708 708 708 708 709 708 708 707 708 708 708 707 708 707 707 707 708 710 710 709 709 709 710 709 709 710 712 712 710 709 712 713 713 712 713 713 713 713 713 714 714 714 714 714 717 718 705 691 685 686 687 689 687 686 685 686 687 687 687 687 687 687 689 688 688 687 688 688 686 685 684 685 685 685 687 686 686 685 684 684 685 688 689 688 689 688 690 688 689 689 690 689 689 690 690 688 689 688 687 688 690 693 693 692 692 692 691 690 690 691 691 691 690 689 690 689 690 690 689 689 688 687 686 687 687 687 688 691 692 691 690 689 688 687 687 690 691 689 687 687 687 687 686 686 687 687 687 687 686 685 685 686 686 686 685 686 687 685 683 685 694 705 712 713 712 713 714 714 714 713 713 713 712 713 712 712 711 712 711 713 712 712 711 711 711 712 713 713 712 712 712 712 713 712 712 711 710 710 711 712 713 712 711 710 712 711
    706 706 706 707 707 707 706 706 707 708 708 707 706 706 707 708 707 707 707 707 707 708 708 708 708 709 709 708 707 706 706 707 708 708 708 709 710 709 708 708 709 709 709 709 710 711 711 710 710 711 712 711 711 712 713 713 712 712 713 713 713 713 714 715 717 706 693 686 688 688 689 687 688 686 688 687 689 688 688 687 686 687 686 686 687 688 689 686 684 683 686 686 688 688 689 688 688 686 686 686 689 689 688 688 689 691 691 690 689 690 690 690 690 689 688 688 689 688 689 691 693 693 693 693 693 691 691 691 693 693 692 691 691 691 690 690 690 690 690 689 690 688 688 686 687 688 691 692 692 691 691 689 687 687 690 690 689 688 687 688 688 689 690 690 690 689 688 686 686 687 688 687 686 685 687 687 686 685 688 697 707 712 713 712 712 713 714 713 713 713 713 712 712 711 712 711 712 711 714 713 713 711 711 712 713 713 713 712 711 710 710 711 712 712 712 711 711 711 712 712 711 711 711 712 712
    706 706 706 707 707 707 706 707 708 709 707 706 706 707 707 707 707 708 707 707 706 707 706 707 708 709 709 707 707 706 707 707 708 708 708 709 709 709 708 709 709 710 710 710 710 712 711 710 709 712 712 712 712 713 713 712 711 711 713 713 714 713 713 714 718 709 696 689 690 689 690 689 689 689 688 689 689 690 688 689 688 689 688 689 689 690 690 688 686 685 687 689 690 690 690 690 690 688 689 689 690 688 688 689 689 692 692 693 691 691 691 691 691 691 691 692 692 692 692 694 695 695 694 694 692 693 693 696 696 696 693 694 694 695 691 691 692 692 692 692 694 692 691 689 691 691 692 692 693 694 694 693 691 690 691 692 690 689 688 690 691 693 692 692 691 691 691 690 691 691 691 690 689 689 688 689 689 689 691 700 709 713 714 713 713 713 714 712 712 712 713 712 712 712 713 712 712 713 714 713 713 711 712 712 713 713 713 713 711 710 709 710 711 712 712 712 711 710 710 711 711 711 711 712 711
    706 706 706 706 707 706 706 707 710 709 707 705 707 706 706 706 707 709 708 707 706 706 706 707 708 708 709 707 707 707 708 708 709 708 708 708 709 709 709 709 709 710 709 709 709 711 711 710 710 710 710 710 710 711 712 710 711 710 712 712 712 712 713 713 716 710 701 692 690 688 688 688 690 689 689 690 690 690 689 689 687 688 687 689 688 689 690 689 687 687 690 691 693 691 692 692 692 690 692 691 692 688 689 689 690 692 693 693 692 693 694 693 692 692 693 693 694 693 694 694 694 694 694 694 693 694 696 699 698 697 694 696 695 694 691 690 691 692 693 693 694 694 694 692 692 691 692 692 694 696 695 693 690 691 692 693 692 692 690 691 692 693 692 691 690 690 691 691 692 693 693 691 689 689 689 691 691 691 694 702 709 713 713 712 713 713 714 713 713 713 714 712 712 712 714 712 712 712 713 712 712 711 712 712 713 712 712 712 711 710 709 710 710 710 711 712 712 711 710 709 710 712 711 712 710
    706 706 706 707 708 707 707 707 708 707 705 705 706 706 706 706 708 709 709 708 707 707 707 708 709 708 708 706 708 708 709 708 707 707 707 708 709 710 710 710 711 712 710 709 709 711 712 712 711 710 710 711 711 712 712 711 712 711 712 711 712 712 713 714 717 713 704 695 693 690 691 690 692 692 692 693 693 693 691 692 690 691 689 692 692 693 692 691 690 690 693 695 696 694 694 693 692 691 693 693 693 691 692 692 692 693 695 695 695 696 696 697 695 696 696 696 694 695 695 696 695 695 694 695 696 698 698 701 700 700 697 698 697 696 694 695 695 695 696 696 696 697 696 696 694 694 694 695 696 698 696 696 694 694 694 694 693 692 692 692 692 693 692 692 691 692 694 693 694 694 695 694 691 692 692 694 693 694 699 707 711 714 714 714 715 715 716 715 715 714 713 712 711 712 713 713 712 712 711 711 712 712 713 712 711 711 711 712 712 712 712 712 710 710 711 712 712 710 709 709 710 712 712 712 709
    706 706 706 706 708 707 707 705 707 706 706 706 707 707 706 707 707 707 707 707 706 707 708 709 709 708 707 706 707 708 709 709 708 707 707 708 709 710 710 709 710 711 709 707 707 708 710 710 709 709 709 709 709 709 711 710 710 709 709 709 711 712 714 714 717 715 706 697 695 693 694 692 693 692 694 695 695 695 694 694 692 693 691 692 692 693 693 692 690 691 695 697 698 696 696 695 695 694 696 694 694 693 694 693 693 694 696 696 697 697 697 698 698 697 696 695 694 695 695 695 695 695 696 697 699 699 699 700 700 699 700 700 700 699 698 697 697 697 698 698 697 699 699 698 696 696 696 695 695 697 697 696 694 694 695 694 693 693 694 694 693 694 693 693 693 693 694 693 694 695 695 694 692 692 692 694 693 695 700 708 713 714 713 713 714 714 715 714 715 714 713 711 710 711 712 713 712 711 711 710 712 712 713 712 712 711 710 710 711 712 712 711 710 709 710 712 712 711 710 710 710 712 712 712 710
    706 707 707 707 709 709 708 707 707 707 707 707 707 707 707 708 708 708 708 707 707 707 708 709 709 709 707 707 707 709 709 709 707 707 707 709 709 710 710 709 708 709 709 708 708 709 709 709 708 710 710 710 710 712 713 712 711 710 711 712 713 713 714 714 716 715 705 698 697 697 698 696 696 695 696 697 696 697 695 697 695 695 694 695 695 695 695 694 693 693 696 699 698 697 696 696 696 696 696 696 696 697 695 694 694 695 696 698 699 699 699 699 699 698 697 696 696 697 698 698 698 698 698 698 700 700 700 701 701 701 701 702 701 700 700 700 701 701 700 699 699 701 702 701 700 700 699 698 697 698 699 699 697 696 696 695 694 694 694 696 696 696 695 695 695 696 696 695 697 696 696 694 692 693 693 695 694 697 704 711 714 714 713 713 714 714 714 714 714 714 713 712 711 711 712 713 713 712 712 710 712 711 712 711 712 711 710 710 711 711 711 710 709 710 710 711 711 710 710 711 711 712 712 713 711
    707 707 707 707 708 708 709 706 708 707 709 708 708 707 707 708 707 707 707 706 705 706 706 707 707 707 707 708 708 708 708 710 709 708 708 709 710 709 710 708 708 708 709 710 710 710 710 709 709 711 711 710 710 711 712 712 711 711 711 711 712 712 713 712 714 715 707 700 698 699 700 699 698 697 696 697 696 696 696 699 698 697 697 696 697 695 696 695 694 694 697 700 699 698 699 700 699 699 699 698 698 698 697 695 695 695 697 697 698 698 699 700 700 698 697 696 697 698 699 699 699 698 700 700 702 701 703 703 703 701 702 701 701 699 701 701 700 699 697 698 699 702 703 701 700 700 700 698 699 700 702 701 699 698 697 696 695 695 695 697 696 697 695 695 696 696 697 697 698 697 696 694 693 694 695 696 696 698 705 710 714 713 713 711 712 712 713 713 714 713 713 711 711 710 712 711 712 711 712 710 711 710 711 711 712 711 710 710 712 711 711 710 711 711 712 712 712 712 712 711 711 711 712 712 710
    707 708 707 707 708 708 708 706 707 707 708 707 706 706 706 707 706 707 707 707 707 706 707 708 708 709 708 709 710 710 710 711 711 710 710 709 710 709 709 708 709 709 709 710 710 711 710 710 710 711 711 711 710 711 711 713 712 713 713 713 713 712 712 712 713 714 708 701 697 700 702 703 703 702 700 700 698 698 698 700 700 700 700 700 700 699 700 698 696 696 698 701 701 700 700 701 701 700 700 700 700 701 700 699 698 699 699 698 698 698 700 701 700 699 698 698 700 701 701 701 700 700 701 702 703 703 705 705 706 704 703 702 701 700 703 703 702 699 698 701 702 704 704 703 701 701 701 702 701 702 702 702 701 700 698 697 697 696 695 696 696 697 696 697 698 698 698 699 700 700 698 696 695 695 697 699 699 702 708 712 715 714 714 713 714 713 713 713 714 713 713 712 713 712 714 713 713 712 712 711 712 711 712 711 712 712 711 711 712 713 712 711 711 712 711 712 712 712 712 710 711 712 711 711 710
    707 707 707 707 708 707 706 705 706 706 708 707 707 707 708 708 707 708 708 707 706 706 706 707 707 707 708 708 709 708 709 710 711 709 709 708 710 709 710 709 709 708 708 709 709 709 710 710 710 710 709 709 708 709 709 710 709 710 711 712 711 711 711 711 712 714 710 702 698 700 703 705 706 704 703 703 703 701 701 701 703 702 702 701 702 701 702 699 698 698 701 703 704 702 703 702 703 702 702 701 701 702 702 702 701 701 702 699 700 700 702 702 702 701 700 698 699 701 702 701 700 700 702 703 706 705 706 706 707 706 706 704 703 703 705 705 703 700 700 702 703 704 703 704 702 701 702 702 702 702 702 702 702 702 701 698 697 696 697 697 698 698 699 700 700 700 701 701 701 700 699 698 696 696 698 699 701 702 708 712 715 715 716 715 715 714 715 714 714 712 713 711 712 711 712 711 711 710 711 710 712 712 712 711 711 712 711 710 711 712 712 712 711 712 711 712 712 713 712 711 711 710 710 709 710
    707 708 708 708 708 707 706 705 705 705 706 707 708 709 709 709 707 708 708 709 708 708 708 708 709 709 708 707 707 708 708 708 709 708 707 707 710 710 709 708 707 707 706 707 707 708 709 709 708 709 710 709 708 708 708 708 709 711 712 713 712 712 712 712 712 713 710 705 700 701 705 707 708 707 707 707 706 704 704 704 705 705 704 704 704 705 705 703 701 701 701 704 704 705 704 704 704 704 704 704 703 704 703 704 703 703 703 701 702 703 704 704 704 704 702 700 701 704 705 703 702 702 704 704 705 705 706 706 707 707 708 708 708 707 707 706 706 705 706 706 706 705 704 705 705 704 704 704 703 703 702 703 703 703 702 701 700 699 698 699 700 700 700 701 701 701 701 703 702 701 701 701 700 700 700 701 703 705 710 713 714 714 715 715 715 714 715 714 713 712 712 713 713 712 711 713 713 713 711 712 713 712 711 710 711 711 711 711 711 712 711 712 711 711 709 710 711 711 710 710 710 709 709 710 711
    707 708 708 708 707 706 706 705 705 705 707 709 710 710 710 709 708 707 708 708 708 706 705 704 707 708 708 707 706 707 707 707 708 708 707 707 709 709 709 707 706 706 707 707 708 709 710 709 708 708 710 709 709 708 708 707 708 710 711 712 712 711 712 711 712 712 711 707 703 704 706 706 706 706 708 709 709 707 706 707 707 705 704 705 707 707 707 705 703 702 703 705 705 705 705 703 704 704 706 706 705 705 705 705 705 705 704 703 704 704 706 705 705 705 703 703 703 705 706 705 703 705 706 707 708 708 709 708 709 709 710 710 711 710 709 708 708 708 708 708 708 707 706 707 707 706 706 706 706 704 703 704 705 704 704 704 703 702 702 702 703 703 703 703 703 702 703 704 704 702 703 704 703 701 701 702 704 707 712 713 714 712 713 712 713 712 714 712 712 710 711 711 711 710 710 711 711 711 710 711 712 711 709 708 710 710 711 710 711 711 711 711 712 711 710 710 711 710 710 709 709 708 709 710 712
    705 707 707 708 707 707 706 705 705 705 706 707 708 710 709 709 707 707 707 708 708 707 706 705 707 709 708 707 706 708 708 708 709 709 709 707 707 708 708 708 708 707 707 707 709 710 711 709 708 708 710 709 709 709 709 709 709 710 711 712 711 712 711 712 712 712 710 708 705 705 706 705 706 707 708 709 709 710 709 709 708 708 707 708 708 709 709 708 705 703 703 706 705 707 705 705 705 706 707 708 707 706 705 706 706 707 707 707 706 707 707 706 705 705 704 706 706 708 706 705 705 708 708 709 708 709 710 712 710 711 710 711 711 711 709 709 709 710 710 712 711 711 709 708 708 708 709 710 708 706 705 705 706 706 706 707 707 707 705 705 704 705 704 704 704 705 705 706 707 707 707 708 708 707 706 706 707 710 714 714 714 712 712 712 712 712 713 711 712 709 711 711 712 712 712 713 712 712 711 712 712 711 709 709 710 711 711 711 712 712 712 711 711 710 710 710 711 710 709 708 708 709 710 711 712
    704 705 706 707 707 706 706 706 707 707 707 707 708 709 709 709 708 707 707 707 708 707 705 705 706 708 709 708 707 707 707 707 709 708 708 707 707 707 708 708 708 707 707 707 709 709 709 707 707 707 709 709 709 709 709 709 709 710 710 711 711 710 711 712 712 711 709 707 705 705 705 704 705 706 709 709 711 711 711 710 710 710 708 708 708 709 710 709 707 706 706 708 707 707 705 705 706 706 708 708 709 708 709 709 708 708 709 710 710 710 710 708 706 706 706 708 709 709 708 707 709 711 711 711 710 711 711 712 712 713 712 712 711 712 711 711 711 711 710 711 712 712 710 709 709 710 711 711 710 708 706 706 707 707 709 709 709 708 708 707 707 707 707 708 708 708 709 710 712 711 712 712 711 710 707 708 709 711 713 713 714 712 712 712 713 711 711 711 713 710 711 710 711 712 712 712 711 712 711 711 711 711 710 710 711 710 712 711 711 710 711 710 710 709 710 709 711 710 709 708 709 710 712 711 712
    705 706 706 707 707 707 706 707 708 708 706 706 707 709 708 709 708 708 706 707 706 707 706 707 706 707 708 708 707 707 707 708 709 708 708 708 708 708 708 708 708 708 707 707 708 708 709 708 708 709 709 710 708 709 709 709 708 708 709 712 712 712 712 713 712 712 711 709 705 704 704 705 706 708 708 710 711 711 711 711 711 711 710 710 709 709 710 711 710 708 708 710 709 709 706 707 707 709 710 711 711 711 710 709 709 709 710 712 712 712 712 710 708 708 709 711 711 711 710 710 711 712 712 711 710 710 711 712 711 711 711 712 711 711 711 711 710 709 710 713 713 713 710 709 709 710 712 711 711 710 710 709 710 710 710 712 712 713 711 711 708 708 709 710 711 712 713 714 714 714 713 712 711 712 711 711 712 713 713 713 713 712 711 712 712 711 710 711 713 711 711 710 711 713 713 712 711 711 710 710 710 712 711 712 712 712 712 712 711 711 710 710 710 710 710 710 710 710 709 709 710 711 711 711 711
    707 707 706 707 708 707 706 706 708 708 707 707 708 708 708 707 707 706 705 706 706 706 706 707 706 706 707 707 707 707 707 708 708 708 708 709 710 710 708 708 707 708 707 707 708 707 708 707 709 710 710 710 709 708 708 707 708 707 709 710 710 710 712 713 713 713 712 710 706 705 705 706 707 709 710 710 710 710 711 710 710 710 710 711 709 709 709 710 711 710 710 710 710 710 709 709 709 709 711 711 712 712 712 711 711 711 711 713 713 713 713 713 711 710 711 712 713 713 714 713 713 713 713 712 712 711 712 711 711 711 712 713 713 713 712 712 712 711 712 713 714 712 711 711 712 713 713 713 712 711 712 712 713 712 713 712 713 714 714 713 712 711 711 711 713 713 713 713 714 715 714 713 713 713 711 712 713 713 712 711 712 711 711 712 711 711 710 710 712 712 711 711 711 713 713 711 711 710 710 710 710 711 711 712 712 711 711 711 710 709 709 709 711 710 710 709 709 710 710 710 711 711 710 710 711
    707 707 706 706 707 707 705 705 706 708 707 708 707 708 706 706 706 707 705 706 705 706 706 707 708 708 707 707 706 707 708 709 708 708 708 710 710 710 709 707 707 708 708 708 707 707 707 707 708 709 710 710 709 708 708 708 708 708 709 709 709 710 712 713 713 713 712 710 706 706 706 707 708 710 710 711 710 711 711 711 710 710 711 712 710 710 710 711 711 711 711 711 711 711 711 712 711 712 713 715 713 713 712 713 713 714 714 715 714 714 714 714 713 712 711 712 713 714 715 715 714 714 715 714 714 713 714 713 713 713 714 714 714 712 710 711 712 712 712 714 714 713 713 714 714 714 713 714 714 714 714 713 714 713 713 713 715 717 716 715 714 713 713 713 714 714 714 714 714 715 714 713 713 713 713 712 713 712 712 712 713 713 713 713 712 711 711 711 710 711 711 711 711 712 712 711 711 711 710 709 709 711 711 711 710 711 711 711 710 709 710 710 711 711 710 709 708 709 709 710 710 710 709 709 710
    708 706 706 706 708 707 706 705 706 707 708 707 707 707 707 706 706 706 706 707 705 705 705 707 708 709 709 707 705 705 706 707 706 707 707 708 708 709 710 707 708 708 709 708 708 707 707 706 707 708 709 710 709 708 708 709 710 710 710 708 708 709 712 712 712 711 712 709 706 707 708 708 709 710 711 711 711 712 713 712 712 711 712 712 711 710 709 711 712 712 713 712 712 713 714 714 714 714 715 715 714 713 713 713 714 715 717 716 716 715 715 715 714 714 714 713 714 715 715 714 714 714 715 713 714 713 714 714 714 713 713 713 713 712 712 711 711 712 712 713 712 712 713 715 715 714 713 712 713 713 714 713 713 711 712 710 713 714 714 713 714 713 713 710 711 710 712 712 714 713 713 712 712 711 711 710 712 711 712 711 712 711 713 712 712 711 710 710 710 711 711 712 712 712 712 711 711 712 711 709 710 710 710 709 709 709 709 709 710 709 711 711 712 711 709 708 709 709 709 709 709 710 709 709 709
    707 706 705 706 706 706 705 706 705 706 706 706 706 706 706 706 706 708 708 707 705 705 705 706 708 709 709 707 705 705 706 707 707 707 708 708 707 708 710 708 708 709 710 709 708 708 708 708 708 709 709 710 709 709 710 711 711 711 710 710 709 711 712 710 708 708 709 710 708 707 708 710 711 711 710 710 711 712 712 711 711 711 712 712 712 711 710 712 712 712 712 712 712 712 712 712 711 712 711 713 711 712 711 711 712 713 713 712 712 712 712 712 712 711 712 712 713 712 712 712 712 712 711 709 709 710 711 712 711 711 710 710 709 709 710 710 710 711 710 710 709 710 711 713 711 710 708 709 709 711 710 710 709 709 709 710 711 711 710 710 711 711 711 708 708 708 710 711 711 710 710 708 709 709 711 710 711 711 711 711 711 711 711 711 711 710 710 711 710 710 711 713 713 711 711 710 711 711 710 708 708 709 710 709 709 708 709 708 710 710 710 711 712 710 709 709 709 709 708 710 710 711 710 710 710
    708 706 706 707 707 706 706 706 707 707 707 705 705 705 707 706 707 707 707 707 705 705 704 705 705 707 708 708 706 705 707 707 708 708 709 708 707 708 710 709 709 709 709 709 709 709 710 709 709 709 709 709 709 709 710 710 711 709 709 708 709 710 710 709 707 707 709 709 708 707 708 709 711 710 708 708 709 710 710 709 709 708 709 709 710 709 708 709 710 710 710 709 710 709 709 708 708 709 709 710 709 710 709 708 710 710 711 711 711 710 710 709 710 709 711 710 711 709 710 710 710 710 708 707 707 709 710 710 708 708 707 707 707 708 710 710 710 710 709 708 707 708 710 711 710 709 707 707 706 708 709 709 708 707 708 709 711 709 709 708 710 709 709 707 707 707 709 709 709 709 709 708 708 707 709 709 710 710 710 710 710 710 711 710 710 709 710 710 710 710 711 712 711 710 710 709 709 709 709 709 709 709 710 708 710 708 709 709 710 710 710 711 713 711 710 709 710 709 709 709 710 709 709 708 709
    707 706 706 706 705 705 705 706 706 707 706 705 705 706 706 707 707 707 707 708 707 707 706 707 706 707 708 709 707 706 707 708 708 708 709 709 708 709 710 710 708 708 707 707 708 710 709 709 709 709 708 708 708 709 710 710 710 708 708 707 709 710 709 707 707 707 708 708 709 707 707 709 710 710 707 708 707 708 709 709 708 707 708 708 709 708 708 708 708 708 707 707 708 707 707 706 707 708 707 708 707 709 708 707 708 708 708 708 709 709 708 707 709 708 710 708 709 708 709 708 708 708 707 707 707 709 707 707 706 708 707 707 706 706 707 708 709 710 708 708 706 707 707 709 708 708 706 707 706 708 708 709 707 708 708 710 710 709 708 707 708 708 708 708 708 708 708 708 708 709 709 707 708 708 709 710 710 709 708 708 709 711 710 710 709 710 710 711 710 711 711 712 711 710 710 710 709 710 710 710 709 709 710 709 710 710 711 711 711 710 709 709 710 710 710 709 709 709 708 709 710 710 709 708 709
    707 706 706 706 707 706 706 706 707 708 708 707 707 707 707 707 708 707 707 707 707 708 707 706 705 706 708 708 707 706 705 707 706 707 706 706 708 710 711 710 708 707 705 706 707 708 708 708 708 708 707 706 706 707 708 709 709 708 708 708 709 709 708 707 708 708 708 708 708 706 705 706 708 708 708 708 707 708 709 709 708 707 707 706 707 707 708 708 709 708 707 706 707 707 707 707 709 710 709 707 707 709 709 709 709 708 708 708 710 709 708 706 708 708 710 708 708 708 709 709 708 708 708 709 709 709 707 706 707 709 709 708 705 706 707 708 708 709 710 710 708 707 707 708 708 709 709 709 708 709 709 710 708 708 708 709 710 710 709 707 707 707 708 709 709 708 708 708 709 709 710 709 709 709 709 709 710 709 708 709 710 711 712 711 711 711 711 711 710 711 711 711 708 708 708 710 710 710 709 710 709 710 711 710 710 710 711 711 711 711 710 708 708 708 710 709 709 709 708 707 708 708 709 708 708
    706 705 705 706 706 706 706 706 706 707 707 707 707 708 707 706 707 706 707 707 707 708 707 707 706 707 708 708 706 706 706 707 706 706 705 706 707 709 710 708 706 706 706 707 706 707 707 708 708 709 709 708 706 707 707 708 708 708 708 709 710 710 708 707 706 707 707 709 708 707 705 706 707 709 710 710 708 708 708 709 709 709 708 708 708 708 709 710 710 709 708 708 709 708 707 707 709 709 707 706 707 710 709 708 707 708 707 708 708 708 707 706 708 710 710 708 708 708 708 708 707 707 708 708 708 708 706 705 706 710 710 709 706 706 706 707 708 710 710 711 708 708 706 707 707 708 709 709 708 709 709 710 707 708 708 710 710 710 709 709 707 708 708 710 710 709 708 708 710 710 710 708 710 710 710 710 708 709 707 709 709 710 710 710 711 712 711 710 708 709 710 711 710 709 708 710 711 711 710 710 709 711 711 711 710 710 710 711 711 711 710 708 708 708 709 708 708 707 708 708 708 709 710 709 708
    705 705 706 706 707 706 706 706 707 707 707 707 707 707 706 704 706 706 707 706 707 707 707 706 705 707 707 706 705 706 706 706 706 706 705 706 708 708 709 708 707 706 707 707 707 707 707 708 708 708 709 709 707 707 706 707 707 708 708 710 710 710 708 708 707 706 706 707 707 706 705 705 706 708 709 710 710 709 708 708 709 709 708 707 706 707 708 710 709 708 708 708 708 708 707 708 709 709 707 707 708 710 709 709 708 708 708 709 709 708 708 707 709 709 709 707 707 708 709 709 708 707 707 707 708 708 708 708 709 709 709 708 708 708 707 708 709 711 712 711 709 708 708 709 709 709 710 710 710 710 710 710 708 707 708 709 710 711 711 711 708 708 710 711 710 709 709 709 710 710 710 709 711 710 710 709 708 709 708 711 709 710 709 709 710 711 710 708 708 708 709 709 708 707 707 709 709 709 708 708 708 710 711 711 711 710 710 710 711 710 709 708 709 708 709 708 708 708 709 708 709 709 711 711 709
    704 704 705 705 705 704 705 706 706 707 706 706 707 707 706 705 706 707 707 707 707 707 707 707 706 707 706 706 706 706 707 707 707 707 707 708 708 707 708 707 706 707 708 708 707 707 707 708 708 709 709 710 708 708 706 706 706 707 707 708 710 710 710 709 709 707 706 706 706 707 707 707 707 708 707 709 709 708 707 707 709 709 708 707 706 707 708 709 708 707 706 708 708 709 707 707 708 708 706 707 708 709 708 708 707 709 709 710 709 709 709 710 710 709 708 707 708 708 708 708 707 706 706 707 707 709 708 708 708 709 708 709 710 710 709 709 710 711 711 710 709 709 709 709 710 709 709 708 710 710 711 710 709 708 709 710 710 710 710 712 710 711 711 712 710 710 710 711 710 709 709 708 709 709 710 709 707 708 708 710 709 709 707 708 708 709 708 709 708 709 709 708 709 708 709 709 709 709 709 709 709 710 711 710 710 710 710 711 711 710 708 709 710 710 709 708 708 708 709 709 710 710 710 710 708
    705 704 706 705 706 705 705 705 705 706 706 706 707 707 706 706 706 707 707 707 707 707 707 707 707 707 708 706 707 706 708 708 708 707 708 707 707 707 708 707 706 706 707 708 708 707 707 706 707 708 709 708 707 706 706 706 707 708 709 708 709 708 710 710 710 708 707 705 706 706 708 707 707 707 707 708 709 708 706 705 706 708 707 706 707 707 707 706 707 707 707 707 708 708 709 708 708 707 707 707 708 709 709 709 709 709 710 710 710 709 709 709 710 708 708 707 708 709 710 709 708 708 708 708 709 710 710 710 709 709 708 708 708 709 708 709 709 709 709 710 710 710 709 709 711 709 709 708 711 712 712 710 709 708 709 708 709 709 711 711 710 709 709 710 709 709 709 710 708 707 707 707 708 708 709 709 708 709 710 711 710 709 709 709 709 709 709 709 711 710 709 707 707 709 709 709 708 708 709 708 707 707 709 709 710 709 710 710 710 709 708 707 708 709 709 709 708 707 708 709 710 710 709 709 707
    705 704 705 705 705 706 706 706 705 706 706 707 707 708 707 707 706 707 706 707 707 707 706 706 706 706 708 708 708 707 707 707 707 707 707 708 708 708 708 707 704 704 706 707 708 708 707 707 706 708 709 708 707 707 707 707 707 707 708 708 708 708 708 708 708 709 708 706 706 707 709 709 709 708 708 708 708 707 706 705 705 706 707 706 707 706 707 707 708 708 707 708 708 707 708 707 708 707 707 708 709 710 710 709 708 709 709 709 709 709 709 709 710 709 708 707 707 709 710 710 708 708 708 709 708 709 708 708 707 709 707 708 707 708 708 709 709 709 708 711 711 711 709 709 710 709 708 707 708 710 711 711 709 707 707 707 708 709 710 711 709 708 708 709 708 707 708 709 708 708 707 708 708 708 709 709 708 710 710 711 710 709 709 709 709 709 708 710 711 711 709 709 709 709 709 709 709 710 709 709 709 709 709 709 710 710 711 711 711 710 709 709 708 709 709 709 709 708 709 710 710 709 708 708 707
    703 704 706 706 707 707 708 707 706 705 706 706 707 707 707 707 707 707 707 707 707 707 706 704 705 707 709 709 708 708 708 708 707 707 706 706 707 707 708 706 704 703 705 706 707 707 707 707 707 708 709 708 707 706 707 707 707 708 708 709 708 708 706 706 707 708 708 707 707 708 709 708 708 708 710 709 709 706 705 705 706 707 708 707 708 707 708 707 708 708 709 709 710 709 708 707 707 707 707 708 709 710 710 709 709 709 709 708 709 708 709 709 710 709 708 707 707 709 709 709 708 708 709 708 708 709 709 710 709 709 707 707 707 707 707 708 708 708 708 710 711 710 709 708 709 708 709 707 709 709 711 709 708 705 706 706 709 710 711 711 709 707 707 708 709 708 708 708 708 708 708 708 708 709 708 709 709 711 711 711 709 709 708 710 710 710 709 709 710 711 710 710 710 710 709 709 709 709 709 708 709 709 709 709 711 710 711 710 710 709 709 709 708 709 709 710 709 709 709 709 710 709 709 708 709
    704 705 705 705 706 706 707 707 706 705 706 706 706 707 707 707 707 708 708 708 708 707 706 704 705 707 708 708 708 708 708 706 705 705 706 706 707 708 708 706 704 704 705 706 707 707 708 708 708 709 709 708 708 707 708 708 707 708 707 708 707 706 705 705 707 708 708 708 708 709 709 709 709 709 710 710 710 708 708 708 708 708 709 708 708 708 708 709 708 707 707 708 710 709 707 707 708 709 708 708 709 709 708 707 707 708 708 708 709 709 709 709 710 710 708 707 707 708 708 708 707 707 707 708 708 708 708 709 708 709 708 708 708 708 708 708 708 707 708 709 710 709 709 708 709 709 710 708 708 709 710 709 708 705 706 706 709 710 710 709 709 708 707 707 707 707 707 709 709 710 709 709 709 709 708 708 709 711 710 709 708 708 707 708 710 710 709 709 710 711 710 710 710 711 710 710 710 710 709 710 712 712 710 710 711 712 711 711 710 709 709 709 709 709 709 710 710 710 710 709 709 709 709 709 709
    705 705 705 705 705 706 706 706 706 705 706 706 707 707 707 707 707 708 709 709 708 707 706 705 706 707 708 707 708 708 708 706 705 705 705 705 706 707 708 705 705 705 707 707 707 706 706 707 708 708 709 708 708 707 707 708 708 709 708 707 707 706 705 705 708 709 709 709 709 709 708 709 709 708 709 710 711 709 709 708 709 709 710 708 708 708 708 707 708 707 709 709 711 710 709 708 708 709 709 708 708 707 707 705 706 707 708 709 708 708 709 709 709 709 708 708 708 708 709 709 709 707 707 707 708 709 711 710 709 708 708 708 708 708 708 708 708 706 709 708 711 709 710 707 709 708 710 709 710 710 710 708 708 706 708 708 709 710 709 710 709 709 709 708 708 708 708 709 710 709 709 708 709 708 707 708 709 710 708 709 708 708 707 709 711 711 710 709 710 710 710 709 710 711 710 709 709 709 709 709 710 710 710 710 711 710 710 708 709 708 709 709 709 709 709 710 709 708 708 708 708 708 709 708 708
    706 705 705 705 706 706 705 705 705 705 706 706 707 707 707 707 706 707 708 708 707 707 705 705 705 707 706 706 707 707 707 706 705 705 706 706 707 707 707 706 705 706 708 709 709 708 707 707 707 708 708 709 708 708 708 708 709 709 707 705 705 705 705 706 707 708 709 709 709 708 708 709 709 708 708 709 709 709 709 707 708 708 708 707 707 707 707 707 708 708 708 707 708 708 709 709 710 710 709 708 708 707 707 705 705 707 708 708 707 708 709 709 709 710 709 709 709 709 710 710 710 708 708 708 709 708 708 708 708 709 708 708 708 708 708 708 707 707 708 709 711 710 710 708 708 708 709 709 710 709 711 710 709 707 707 707 708 710 709 709 708 709 709 709 709 708 708 709 709 709 708 709 709 709 707 707 708 709 707 708 707 707 707 709 710 710 709 709 709 709 708 708 710 711 710 710 710 709 708 709 710 710 709 709 709 709 709 708 709 708 708 709 708 709 710 711 710 709 708 708 708 708 708 709 708
    707 705 706 706 706 706 705 705 705 705 707 707 707 706 706 707 706 706 707 707 706 706 706 705 705 706 707 706 707 707 707 706 707 707 708 708 708 706 707 706 707 707 708 708 709 708 708 707 707 707 708 708 708 707 706 707 709 708 708 706 707 706 706 706 707 708 708 707 708 707 708 708 708 708 708 707 708 707 707 706 707 708 708 706 705 706 707 707 709 709 710 707 708 708 709 708 708 708 708 707 707 707 708 707 707 707 708 708 707 707 709 710 710 709 709 710 710 710 709 709 709 708 709 709 710 708 707 708 708 709 708 708 708 708 709 708 708 707 708 709 711 710 710 708 708 708 708 707 708 709 711 711 711 709 708 708 709 709 709 709 709 710 711 710 709 708 707 708 708 708 708 708 709 709 708 708 708 708 707 707 707 708 708 709 710 710 709 709 709 707 706 706 709 710 710 709 709 708 708 707 708 708 709 709 710 709 709 709 710 709 710 709 708 709 710 711 710 709 709 708 708 707 708 708 709
    706 706 706 706 706 705 704 705 705 705 706 707 706 705 705 706 706 706 706 706 706 706 706 706 705 707 707 708 706 707 706 707 707 707 707 707 707 707 706 706 707 707 708 708 709 709 709 708 708 708 708 709 708 707 705 707 709 708 708 706 707 706 706 706 706 706 706 706 708 709 709 708 707 708 709 708 707 707 708 707 706 707 707 706 705 707 708 709 710 709 708 707 707 706 707 707 708 708 707 707 707 708 709 709 709 709 708 708 707 707 709 710 710 709 709 710 709 709 708 708 707 707 709 710 709 707 707 707 707 709 709 709 708 707 707 707 706 707 707 709 710 710 708 706 706 707 707 707 707 708 710 710 710 708 706 706 708 709 708 708 708 708 709 710 709 707 706 708 708 708 707 708 707 708 707 707 707 708 706 706 707 708 708 710 710 710 709 710 710 708 708 707 710 710 710 709 709 709 709 709 709 708 709 710 710 709 709 709 709 709 709 708 708 709 708 710 709 710 710 709 709 708 709 708 709
    706 707 707 706 706 706 705 705 705 705 706 707 706 705 704 705 706 706 705 704 705 707 708 707 707 707 707 707 707 707 706 706 706 707 707 707 707 707 706 706 707 707 707 706 706 706 707 707 708 708 708 707 707 707 705 706 707 707 708 707 709 707 707 706 707 706 706 705 708 709 709 708 708 708 709 708 708 708 708 708 707 707 707 707 707 708 709 709 709 709 709 707 707 706 707 706 706 706 706 706 706 708 709 709 709 708 709 708 708 707 709 710 710 709 708 709 708 708 708 708 707 707 709 709 710 709 708 707 707 708 709 708 707 707 707 707 706 706 707 709 709 708 707 706 707 708 709 709 709 708 709 709 710 708 707 707 708 708 708 707 708 708 709 710 709 708 707 709 709 709 708 708 709 709 709 709 709 709 707 707 707 709 709 710 711 711 711 709 710 709 709 708 710 709 710 708 709 708 710 709 709 707 708 710 711 709 709 708 710 709 708 707 707 707 708 708 708 709 709 709 709 708 708 707 708
    706 707 707 706 705 705 704 704 704 704 704 705 705 704 703 704 705 706 706 705 706 707 707 707 706 707 707 708 707 707 706 706 704 705 705 706 706 707 706 705 706 707 707 707 706 707 707 708 707 707 706 707 707 707 706 707 707 707 707 707 709 708 708 707 706 705 704 705 708 709 709 708 708 707 707 706 707 708 708 709 707 706 706 707 708 708 708 709 710 709 708 707 707 707 707 708 707 707 706 707 707 708 708 707 708 708 709 708 707 707 708 710 710 710 708 707 706 706 707 707 707 707 708 708 709 709 710 708 708 708 709 709 707 707 706 707 707 707 708 710 708 707 706 707 707 707 708 708 709 708 709 709 710 709 709 709 709 710 710 708 708 708 709 711 710 709 709 710 710 710 708 708 708 709 709 710 709 709 708 708 707 709 709 708 709 710 711 709 709 709 710 708 709 708 708 707 709 709 710 710 709 708 708 710 710 710 708 708 709 708 707 707 707 708 708 708 707 708 708 710 710 710 709 708 708
    706 707 707 707 706 706 705 704 704 703 704 705 705 704 702 704 705 706 705 705 705 706 706 706 705 705 706 707 707 706 706 706 705 705 705 706 707 707 707 706 706 706 707 706 706 706 706 707 707 708 707 708 707 707 706 707 705 705 706 707 708 707 707 706 708 706 706 705 707 707 709 707 707 707 707 706 707 707 708 707 707 706 706 706 708 707 707 708 709 708 708 707 707 707 708 708 707 708 707 707 707 707 708 707 708 708 709 707 707 707 708 709 708 708 707 707 707 707 708 708 709 707 708 707 710 711 711 709 708 708 708 708 707 707 707 707 707 708 708 709 708 707 707 709 710 709 709 709 710 710 711 710 711 711 710 710 711 711 711 709 709 708 710 710 710 710 710 710 709 709 708 707 708 709 710 709 710 710 709 708 707 707 709 708 709 709 710 708 708 708 708 705 706 707 708 707 708 708 710 710 709 709 708 709 709 709 709 709 709 709 708 708 707 708 709 709 708 708 708 709 709 710 709 708 708
    706 707 707 707 706 705 703 703 702 703 703 704 704 704 703 705 705 706 705 705 705 706 706 705 705 705 707 707 707 707 707 707 706 706 706 707 706 706 707 707 707 707 708 708 708 707 707 707 707 706 706 707 708 708 707 707 707 707 707 707 707 707 708 707 707 707 706 705 706 707 708 707 707 707 708 708 707 708 708 708 708 706 707 707 707 706 706 707 708 707 708 708 709 709 708 708 708 709 709 709 709 708 708 708 709 709 709 707 707 707 707 707 707 708 707 707 706 707 707 708 708 708 708 709 710 711 711 711 710 709 709 710 709 709 708 709 709 709 709 708 708 708 708 710 710 708 706 707 708 708 710 709 711 710 709 710 710 711 711 711 709 708 707 708 708 708 709 710 709 708 707 706 707 707 708 708 708 709 708 708 707 708 709 708 708 708 709 708 708 708 708 706 705 707 708 708 709 710 710 710 709 710 709 709 708 708 709 709 709 709 709 709 708 708 708 708 708 708 708 708 708 710 709 709 707
    705 706 706 706 706 706 705 705 704 704 703 704 704 705 705 707 706 707 705 706 705 706 706 707 707 707 708 707 707 706 707 707 707 707 707 706 705 706 707 707 707 706 706 705 706 706 707 706 706 706 707 707 708 708 708 707 707 708 708 707 706 706 707 707 708 708 707 706 705 706 707 707 707 708 709 709 709 709 708 708 708 707 707 706 707 707 708 708 708 707 707 707 708 708 708 707 708 708 709 709 709 709 708 709 709 709 709 708 708 707 708 707 707 707 707 708 708 709 709 709 709 709 710 710 710 710 709 710 710 710 710 709 710 709 709 709 710 708 708 708 708 709 709 711 710 709 708 709 711 710 710 709 709 709 708 708 708 709 710 710 709 708 706 706 708 709 710 710 710 708 706 706 707 707 708 707 709 709 710 709 709 708 709 708 710 709 711 709 710 708 709 707 707 708 708 709 709 709 710 708 708 707 709 708 708 707 707 707 708 709 710 710 709 708 707 709 709 709 708 707 707 709 709 708 708
    705 705 704 705 705 706 705 705 704 705 704 705 704 705 704 706 706 707 706 707 706 706 705 706 707 707 708 706 706 706 706 707 706 707 706 705 704 705 706 706 706 707 706 706 706 707 708 707 707 706 706 706 707 708 707 708 708 708 708 708 706 707 706 707 706 707 705 705 704 705 705 707 708 709 709 709 709 709 708 708 708 708 708 707 707 708 708 708 708 708 707 706 706 708 707 708 709 710 710 711 710 710 708 708 708 709 709 709 709 709 709 708 708 709 707 708 706 708 708 709 708 710 710 710 708 708 707 709 710 710 710 710 710 710 710 710 710 709 708 707 708 708 708 710 708 708 707 709 710 710 709 709 709 709 709 708 708 708 708 710 709 708 706 706 707 708 709 710 709 708 706 706 706 706 707 708 709 709 710 709 709 708 708 708 709 709 709 708 708 708 710 709 708 708 708 710 709 709 709 708 708 707 708 710 709 710 709 709 709 709 710 710 709 709 707 708 709 709 708 707 707 708 708 707 707
    705 704 703 704 705 706 706 706 705 704 706 707 706 705 705 705 706 707 708 707 706 706 706 706 707 706 706 705 706 705 706 706 706 706 705 706 705 706 706 706 706 706 705 705 706 707 707 706 706 706 706 706 706 706 706 708 707 707 706 706 705 705 705 707 708 708 706 705 703 704 704 706 707 708 708 708 709 709 708 707 708 708 708 708 708 710 710 711 710 710 709 707 706 706 707 709 709 710 709 710 708 709 708 709 708 709 710 709 710 710 710 710 709 709 708 707 705 707 709 709 709 709 710 710 709 707 707 708 710 710 709 709 709 709 709 709 710 709 709 708 708 708 708 709 709 709 709 709 710 710 709 709 710 710 710 709 709 709 709 710 709 709 708 708 709 708 709 709 709 707 706 706 705 706 707 707 708 708 710 708 709 707 708 708 709 709 709 708 709 709 710 709 709 710 709 709 709 709 709 709 709 708 709 710 709 709 708 707 708 709 709 710 710 709 708 708 709 709 708 707 708 708 708 707 708
    704 704 703 703 702 704 705 705 705 705 706 707 707 706 705 704 706 706 707 706 705 705 705 705 705 704 705 704 705 705 706 707 705 706 705 706 706 707 707 706 707 707 706 706 706 707 706 707 707 706 704 705 705 706 706 707 706 706 706 706 705 704 705 706 707 708 707 705 705 706 706 707 707 709 709 709 709 709 709 707 708 708 708 709 708 710 709 710 708 708 709 707 705 705 706 709 709 709 708 708 708 709 709 709 707 709 708 709 708 709 708 709 707 709 707 707 704 707 708 709 708 709 710 710 709 707 707 708 709 709 708 708 708 709 708 708 709 708 708 708 708 709 708 709 709 710 709 708 707 708 707 709 711 711 709 709 709 709 708 708 708 707 707 708 709 709 709 708 708 707 707 707 705 706 707 708 708 707 709 707 708 707 707 707 707 708 708 708 708 708 708 709 709 710 709 709 709 710 710 710 709 709 708 708 708 709 709 709 708 709 708 708 708 709 708 708 707 708 708 709 708 708 706 707 707
    703 704 703 703 703 704 705 705 706 706 707 706 706 706 707 706 707 705 706 705 705 706 706 705 704 703 705 704 705 705 706 706 705 706 706 707 707 707 707 707 707 706 705 705 704 706 705 706 705 705 705 705 706 706 707 708 707 708 708 707 706 705 706 706 707 708 708 707 707 707 707 707 707 708 709 709 710 709 710 709 708 707 707 709 709 710 709 710 708 707 708 708 707 706 706 706 706 706 706 706 706 707 707 708 707 708 708 708 708 708 708 708 708 708 709 708 706 706 707 708 708 708 709 708 707 706 707 709 709 709 708 708 707 706 707 708 709 708 708 707 709 708 709 708 709 708 708 707 706 706 706 708 709 710 709 708 709 709 709 708 709 709 708 709 709 709 709 708 709 708 708 707 707 707 707 707 708 707 708 706 707 707 707 707 707 709 709 709 709 709 707 708 708 709 708 708 709 709 710 709 709 709 708 708 708 708 708 707 708 708 708 708 708 708 707 707 707 707 707 708 708 708 707 708 708
    702 704 704 704 703 704 705 706 706 707 706 706 705 706 706 706 706 705 704 704 704 705 705 704 704 704 705 705 704 704 706 706 706 706 707 706 706 707 707 707 707 707 706 705 704 706 706 706 705 706 706 707 708 708 707 706 706 708 709 709 708 707 707 706 707 708 708 707 708 708 709 709 708 708 708 708 708 708 707 707 706 707 707 708 708 709 708 709 707 707 707 708 707 706 705 704 705 706 707 707 706 707 707 708 707 708 708 708 707 707 707 708 708 709 708 709 707 707 706 707 707 708 708 708 707 707 708 710 708 709 708 708 707 707 707 707 707 706 707 708 708 708 709 709 709 708 708 707 707 707 707 708 708 709 708 709 710 709 708 708 708 709 707 708 707 708 707 707 708 708 708 708 708 708 707 707 708 708 708 707 707 708 707 708 708 709 709 709 708 707 707 707 707 708 707 708 708 709 708 707 707 707 706 707 707 710 708 708 708 708 709 708 708 708 708 708 707 708 709 710 709 709 709 708 708
    704 705 705 705 704 704 704 705 706 706 706 705 705 706 706 706 706 704 705 704 705 705 705 705 704 704 705 704 704 705 707 706 706 707 708 707 707 707 707 707 707 707 706 706 705 706 705 704 704 706 706 707 708 706 706 706 707 708 708 707 708 708 707 705 707 707 708 707 707 707 707 707 707 707 706 706 706 706 706 707 706 706 706 708 709 709 708 709 707 707 706 708 708 707 706 706 707 707 708 707 707 707 707 708 708 708 709 708 708 706 707 707 708 707 708 707 708 706 706 707 708 708 708 707 707 707 709 710 710 709 709 709 708 708 708 708 708 707 707 708 709 709 709 707 707 707 708 707 707 707 707 708 708 708 708 709 710 709 709 710 710 710 709 708 708 708 707 706 708 708 708 708 708 707 707 706 707 708 709 707 707 708 708 708 708 708 708 708 708 708 708 709 708 707 707 707 708 709 708 708 708 709 709 710 710 710 709 708 708 708 709 709 710 709 708 707 707 708 709 709 709 709 709 707 707
    705 706 705 704 702 703 703 704 705 705 705 705 705 705 706 706 706 706 706 706 706 706 705 705 705 705 705 704 705 705 706 706 705 707 707 707 707 706 706 706 706 707 707 708 707 707 705 705 705 706 706 706 707 706 705 705 705 707 706 706 706 707 705 705 707 706 706 706 707 708 707 707 707 707 706 706 705 705 705 707 707 707 706 708 709 709 708 709 709 708 707 707 707 707 708 707 709 708 708 707 707 708 709 708 707 708 709 708 707 706 706 707 707 707 707 707 707 707 707 708 709 709 708 708 708 709 709 709 708 708 708 710 709 709 708 708 707 707 707 709 709 709 708 707 708 708 709 708 707 706 707 707 708 708 708 708 709 709 709 709 709 708 707 706 706 706 707 707 707 707 708 709 709 708 707 706 707 707 708 708 708 708 708 709 709 709 709 709 708 708 710 710 709 708 708 708 709 709 708 708 709 711 709 709 708 709 708 708 709 709 709 710 709 709 708 708 708 708 709 709 709 709 709 708 708
    705 705 705 704 703 703 704 705 706 706 706 705 705 705 706 706 706 706 707 707 706 706 706 706 705 705 707 706 705 704 705 706 706 707 706 707 707 707 705 705 704 705 706 706 706 705 704 705 706 706 706 705 706 706 705 705 706 707 705 705 705 706 705 705 707 706 706 705 707 707 707 706 707 706 707 705 706 705 707 708 708 707 706 708 708 707 706 706 707 706 706 706 707 708 708 708 709 709 709 706 706 707 709 708 708 708 709 708 707 705 706 706 707 706 707 707 708 707 708 709 709 709 708 707 708 708 708 707 707 708 709 710 709 708 707 707 708 707 707 709 709 709 708 707 708 708 709 707 707 707 707 708 709 708 709 708 708 708 709 709 709 708 707 706 707 708 708 708 708 708 708 709 709 709 708 707 708 708 709 708 709 709 709 708 709 709 709 709 709 709 709 709 708 707 707 707 708 708 708 708 710 711 711 709 709 708 708 707 708 708 709 709 709 708 708 707 708 708 708 708 708 707 708 708 708
    703 704 704 704 702 703 703 704 704 704 705 705 705 705 706 706 706 706 707 706 705 705 705 705 704 705 706 706 704 703 702 705 705 705 704 705 706 706 705 705 706 707 706 706 706 706 706 706 707 707 706 705 706 706 705 706 706 708 707 707 707 707 706 706 707 707 705 705 706 707 707 707 708 707 707 705 706 706 707 708 707 707 707 707 706 706 705 706 706 707 707 706 706 707 706 707 708 710 710 708 706 707 709 709 707 708 707 708 707 707 707 707 707 706 707 707 708 707 708 708 708 707 707 707 707 707 707 706 706 707 707 708 708 708 707 707 707 707 707 709 709 708 708 707 707 708 709 708 707 706 707 709 709 709 709 709 709 709 709 709 708 708 707 706 705 706 707 709 708 709 707 709 709 708 708 707 708 707 707 707 707 709 709 709 708 709 710 710 710 710 709 708 708 708 707 707 707 708 708 708 709 709 708 707 707 706 706 707 708 708 708 707 708 708 708 708 709 709 709 708 707 708 708 709 708
    703 704 706 706 704 704 704 705 705 705 706 705 705 705 706 705 704 703 704 704 704 704 704 704 704 704 705 704 704 703 704 705 706 705 705 705 706 706 705 706 706 708 705 704 704 705 706 706 707 708 707 706 705 705 706 706 707 707 707 708 708 708 707 707 708 707 706 705 705 705 706 707 707 706 706 705 706 707 707 707 707 707 707 707 706 707 706 705 704 706 707 707 707 706 706 707 708 709 708 708 707 707 708 709 708 708 708 708 708 707 707 706 707 706 707 708 708 707 707 708 707 707 707 706 707 707 706 705 707 707 708 707 708 707 708 707 707 708 708 709 709 709 709 708 708 709 710 708 708 708 709 710 710 709 710 710 710 709 709 709 708 709 708 708 707 708 709 709 709 709 708 708 708 708 709 708 708 707 707 707 708 709 709 708 707 707 708 708 709 709 708 708 707 707 706 706 706 707 708 709 708 708 708 708 708 707 707 707 708 707 708 708 708 707 708 707 709 709 709 709 707 707 707 708 707</data></data>
</opencv_storage>
